ply
format ascii 1.0
element vertex 850
property float x
property float y
property float z
property float nx
property float ny
property float nz
end_header
168.0 108.40121 196.0 0.8965207 -0.44295326 0.0065672784
168.0 108.40763 197.0 0.8965252 -0.44294965 -0.0061796573
168.0 108.39368 198.0 0.8965252 -0.44294965 -0.0061796573
168.0 108.37972 199.0 0.8965252 -0.44294965 -0.0061796573
168.0 147.61378 195.0 0.896447 0.44310188 0.006591803
168.0 147.59892 196.0 0.896447 0.44310188 0.006591803
168.0 147.59229 197.0 0.89644307 0.44311553 -0.0062008444
168.0 147.60628 198.0 0.89644307 0.44311553 -0.0062008444
168.0 147.62027 199.0 0.89644307 0.44311553 -0.0062008444
88.0 108.38506 195.0 -0.8962821 -0.443435 0.006616864
88.0 108.39998 196.0 -0.8962821 -0.443435 0.006616864
88.0 108.40775 197.0 -0.8963118 -0.44338068 -0.006217255
88.0 108.39373 198.0 -0.8963118 -0.44338068 -0.006217255
88.0 108.37971 199.0 -0.8963118 -0.44338068 -0.006217255
122.0 83.85348 58.0 -0.15911873 -0.9872397 -0.0062390915
121.0 84.00833 59.0 -0.15911873 -0.9872397 -0.0062390915
121.0 84.00201 60.0 -0.15911873 -0.9872397 -0.0062390915
121.0 84.00406 56.0 -0.13789313 -0.9904242 -0.006736642
122.0 83.86484 56.0 -0.13789313 -0.9904242 -0.006736642
122.0 83.85803 57.0 -0.13789313 -0.9904242 -0.006736642
97.0 96.00903 98.0 -0.70151466 -0.71265215 -0.002020137
159.0 159.99097 98.0 0.7015079 0.7126588 -0.0020163255
129.0 83.46156 59.0 0.03793148 -0.99925506 0.0071092714
130.0 83.49952 59.0 0.03793148 -0.99925506 0.0071092714
129.0 83.46868 60.0 0.03793148 -0.99925506 0.0071092714
130.0 83.50664 60.0 0.03793148 -0.99925506 0.0071092714
127.0 83.46856 61.0 -0.019093225 -0.9997948 -0.006768494
128.0 83.44946 61.0 -0.019093225 -0.9997948 -0.006768494
127.0 83.46179 62.0 -0.019093225 -0.9997948 -0.006768494
121.0 171.99129 121.0 -0.14604428 0.9892621 -0.005614924
122.0 172.13892 121.0 -0.14604428 0.9892621 -0.005614924
121.0 171.99696 122.0 -0.14604428 0.9892621 -0.005614924
122.0 172.14459 122.0 -0.14604428 0.9892621 -0.005614924
121.0 84.00883 57.0 -0.15815978 -0.98739743 0.0056335637
120.0 84.17471 58.0 -0.15815978 -0.98739743 0.0056335637
121.0 84.014534 58.0 -0.15815978 -0.98739743 0.0056335637
134.0 172.14651 58.0 0.15912019 0.98723954 -0.0062373104
135.0 171.99167 59.0 0.15912019 0.98723954 -0.0062373104
135.0 171.99799 60.0 0.15912019 0.98723954 -0.0062373104
134.0 172.13516 56.0 0.13789466 0.990424 -0.0067371964
135.0 171.99593 56.0 0.13789466 0.990424 -0.0067371964
134.0 172.14197 57.0 0.13789466 0.990424 -0.0067371964
127.0 83.458534 58.0 -0.018526828 -0.999805 0.006837383
127.0 83.46538 59.0 -0.018526828 -0.999805 0.006837383
127.0 83.47221 60.0 -0.018526828 -0.999805 0.006837383
128.0 83.45368 60.0 -0.018526828 -0.999805 0.006837383
124.0 83.63254 61.0 -0.07443898 -0.99720365 -0.006610639
125.0 83.557884 61.0 -0.07443898 -0.99720365 -0.006610639
125.0 83.551254 62.0 -0.07443898 -0.99720365 -0.006610639
125.0 172.45035 129.0 -0.08277161 0.99655503 0.0051944763
124.0 172.36208 130.0 -0.08277161 0.99655503 0.0051944763
125.0 172.44514 130.0 -0.08277161 0.99655503 0.0051944763
124.0 172.35687 131.0 -0.08277161 0.99655503 0.0051944763
125.0 172.43993 131.0 -0.08277161 0.99655503 0.0051944763
135.0 171.99117 57.0 0.15816143 0.9873972 0.0056330105
135.0 171.98546 58.0 0.15816143 0.9873972 0.0056330105
136.0 171.82529 58.0 0.15816143 0.9873972 0.0056330105
119.0 84.37027 59.0 -0.20587069 -0.9785697 -0.004322765
119.0 84.36585 60.0 -0.20587069 -0.9785697 -0.004322765
124.0 172.36488 129.0 -0.08645228 0.9962544 0.0017971592
123.0 172.26678 121.0 -0.09289602 0.9956553 -0.006388888
124.0 172.36009 121.0 -0.09289602 0.9956553 -0.006388888
124.0 172.3665 122.0 -0.09289602 0.9956553 -0.006388888
125.0 172.45023 121.0 -0.073751196 0.9972699 0.0036621394
125.0 172.44656 122.0 -0.073751196 0.9972699 0.0036621394
124.0 172.36893 123.0 -0.073751196 0.9972699 0.0036621394
125.0 172.44289 123.0 -0.073751196 0.9972699 0.0036621394
127.0 172.53575 130.0 -0.020350426 0.9997701 0.0067490907
127.0 172.52899 131.0 -0.020350426 0.9997701 0.0067490907
128.0 172.54935 131.0 -0.020350426 0.9997701 0.0067490907
112.0 169.57779 106.0 -0.36744383 0.93003285 -0.0048868484
116.0 85.10013 162.0 -0.26013276 -0.96557003 0.002333178
116.0 85.10255 163.0 -0.26013276 -0.96557003 0.002333178
117.0 84.83314 163.0 -0.26013276 -0.96557003 0.002333178
126.0 172.4977 86.0 -0.037793554 0.9992729 -0.005033384
127.0 172.53552 86.0 -0.037793554 0.9992729 -0.005033384
126.0 172.50273 87.0 -0.037793554 0.9992729 -0.005033384
130.0 172.50436 130.0 0.03604544 0.99933255 0.005929786
129.0 172.5345 131.0 0.03604544 0.99933255 0.005929786
130.0 172.49843 131.0 0.03604544 0.99933255 0.005929786
119.0 84.38108 56.0 -0.19595258 -0.9805886 -0.0069720033
120.0 84.18125 56.0 -0.19595258 -0.9805886 -0.0069720033
119.0 84.37397 57.0 -0.19595258 -0.9805886 -0.0069720033
120.0 84.17414 57.0 -0.19595258 -0.9805886 -0.0069720033
94.0 99.20711 163.0 -0.7756502 -0.63116014 0.0019102951
94.0 99.21014 164.0 -0.7756502 -0.63116014 0.0019102951
125.0 83.55382 59.0 -0.07395065 -0.99724007 0.0066030375
124.0 83.63459 60.0 -0.07395065 -0.99724007 0.0066030375
125.0 83.56043 60.0 -0.07395065 -0.99724007 0.0066030375
162.0 156.79279 163.0 0.77560055 0.6312211 0.0019205448
162.0 156.78973 164.0 0.77560055 0.6312211 0.0019205448
122.0 83.86293 61.0 -0.12855536 -0.99168193 -0.006357286
123.0 83.7333 61.0 -0.12855536 -0.99168193 -0.006357286
122.0 83.85652 62.0 -0.12855536 -0.99168193 -0.006357286
94.0 156.79343 163.0 -0.77583736 0.6309302 0.0018732501
94.0 156.79045 164.0 -0.77583736 0.6309302 0.0018732501
129.0 172.52684 121.0 0.017450007 0.9998346 -0.0051268884
129.0 172.53197 122.0 0.017450007 0.9998346 -0.0051268884
129.0 172.5371 123.0 0.017450007 0.9998346 -0.0051268884
162.0 99.20666 163.0 0.7757896 -0.63098884 0.0018821027
162.0 99.20964 164.0 0.7757896 -0.63098884 0.0018821027
118.0 84.58242 57.0 -0.20496415 -0.9787694 0.00038689992
118.0 84.58281 58.0 -0.20496415 -0.9787694 0.00038689992
119.0 84.373405 58.0 -0.20496415 -0.9787694 0.00038689992
137.0 171.62973 59.0 0.2058672 0.9785704 -0.004322381
137.0 171.63414 60.0 0.2058672 0.9785704 -0.004322381
136.0 171.81874 56.0 0.19595264 0.98058856 -0.00697195
137.0 171.61891 56.0 0.19595264 0.98058856 -0.00697195
136.0 171.82585 57.0 0.19595264 0.98058856 -0.00697195
137.0 171.62602 57.0 0.19595264 0.98058856 -0.00697195
122.0 83.85763 59.0 -0.12807171 -0.991745 0.006285013
122.0 83.86397 60.0 -0.12807171 -0.991745 0.006285013
123.0 83.734825 60.0 -0.12807171 -0.991745 0.006285013
120.0 84.18136 61.0 -0.18031786 -0.9835908 -0.00588852
120.0 84.17537 62.0 -0.18031786 -0.9835908 -0.00588852
132.0 172.36647 130.0 0.08849099 0.9960608 0.0056793285
131.0 172.44962 131.0 0.08849099 0.9960608 0.0056793285
132.0 172.36076 131.0 0.08849099 0.9960608 0.0056793285
133.0 172.27193 131.0 0.08849099 0.9960608 0.0056793285
138.0 171.41757 57.0 0.20496118 0.97877 0.0003844688
137.0 171.62659 58.0 0.20496118 0.97877 0.0003844688
138.0 171.41719 58.0 0.20496118 0.97877 0.0003844688
111.0 169.17116 108.0 -0.3836015 0.92344975 0.009512556
116.0 85.09979 161.0 -0.2521969 -0.96766675 -0.0042195525
117.0 84.839165 161.0 -0.2521969 -0.96766675 -0.0042195525
117.0 84.83481 162.0 -0.2521969 -0.96766675 -0.0042195525
120.0 84.175476 59.0 -0.18005419 -0.98363864 0.0059589203
120.0 84.18153 60.0 -0.18005419 -0.98363864 0.0059589203
120.0 171.82568 60.0 -0.1559261 0.9877447 -0.0068864296
121.0 171.98354 60.0 -0.1559261 0.9877447 -0.0068864296
122.0 172.1414 60.0 -0.1559261 0.9877447 -0.0068864296
121.0 171.99051 61.0 -0.1559261 0.9877447 -0.0068864296
121.0 171.99748 62.0 -0.1559261 0.9877447 -0.0068864296
131.0 172.4389 121.0 0.075722285 0.99710625 -0.0067262114
132.0 172.36296 121.0 0.075722285 0.99710625 -0.0067262114
131.0 172.44565 122.0 0.075722285 0.99710625 -0.0067262114
132.0 172.3697 122.0 0.075722285 0.99710625 -0.0067262114
123.0 172.26376 58.0 -0.10979925 0.993952 -0.001884527
147.0 87.70856 83.0 0.43144014 -0.90213907 0.0021218348
148.0 88.18915 84.0 0.43144014 -0.90213907 0.0021218348
121.0 171.99744 58.0 -0.14646558 0.9892143 0.0016914912
122.0 172.1455 58.0 -0.14646558 0.9892143 0.0016914912
122.0 172.14378 59.0 -0.14646558 0.9892143 0.0016914912
134.0 172.14444 129.0 0.1427427 0.98973984 0.006289892
134.0 172.13808 130.0 0.1427427 0.98973984 0.006289892
135.0 171.99385 130.0 0.1427427 0.98973984 0.006289892
147.0 87.7088 84.0 0.43314755 -0.901322 -0.001345766
147.0 87.707306 85.0 0.43314755 -0.901322 -0.001345766
133.0 172.27 121.0 0.13296798 0.9911045 -0.0056051663
134.0 172.13585 121.0 0.13296798 0.9911045 -0.0056051663
134.0 172.1415 122.0 0.13296798 0.9911045 -0.0056051663
152.0 165.53154 172.0 0.53037626 0.84776044 0.0017956664
152.0 165.52942 173.0 0.53037626 0.84776044 0.0017956664
152.0 165.5286 175.0 0.5333188 0.84591377 0.00094714185
152.0 165.52747 176.0 0.5333188 0.84591377 0.00094714185
109.0 168.29144 83.0 -0.4314715 0.90212405 0.00212478
108.0 167.8108 84.0 -0.4314715 0.90212405 0.00212478
136.0 171.81795 121.0 0.18243803 0.9832041 -0.0050948127
137.0 171.63239 121.0 0.18243803 0.9832041 -0.0050948127
136.0 171.82312 122.0 0.18243803 0.9832041 -0.0050948127
136.0 171.82831 123.0 0.18243803 0.9832041 -0.0050948127
121.0 171.99022 59.0 -0.15382774 0.9880564 0.009027917
137.0 171.63069 122.0 0.20263213 0.97924227 0.00498019
137.0 171.62561 123.0 0.20263213 0.97924227 0.00498019
123.0 172.2601 60.0 -0.09520183 0.9954289 -0.0076091345
124.0 172.35574 60.0 -0.09520183 0.9954289 -0.0076091345
123.0 172.26775 61.0 -0.09520183 0.9954289 -0.0076091345
124.0 172.36339 61.0 -0.09520183 0.9954289 -0.0076091345
109.0 168.2912 84.0 -0.43318328 0.90130484 -0.0013523551
109.0 168.29271 85.0 -0.43318328 0.90130484 -0.0013523551
88.0 147.59715 88.0 -0.89272195 0.4505353 -0.008090625
88.0 147.61511 89.0 -0.89272195 0.4505353 -0.008090625
139.0 84.8397 121.0 0.24390443 -0.96978366 -0.0055052997
139.0 84.83402 122.0 0.24390443 -0.96978366 -0.0055052997
118.0 171.41313 117.0 -0.22505394 0.97434413 -0.0020611119
124.0 172.36969 58.0 -0.0971959 0.99523383 0.007912653
123.0 172.26408 59.0 -0.0971959 0.99523383 0.007912653
124.0 172.36174 59.0 -0.0971959 0.99523383 0.007912653
125.0 172.45145 60.0 -0.0971959 0.99523383 0.007912653
138.0 84.583916 122.0 0.24119405 -0.97047365 -0.0025088445
139.0 84.82986 123.0 0.24119405 -0.97047365 -0.0025088445
168.0 147.59804 88.0 0.8925682 0.45084265 -0.007934585
168.0 147.61563 89.0 0.8925682 0.45084265 -0.007934585
126.0 172.49928 61.0 -0.037061587 0.99928904 -0.0069218106
127.0 172.53638 61.0 -0.037061587 0.99928904 -0.0069218106
126.0 172.50621 62.0 -0.037061587 0.99928904 -0.0069218106
118.0 171.41151 118.0 -0.21444944 0.97672546 0.004344151
119.0 171.63107 118.0 -0.21444944 0.97672546 0.004344151
117.0 171.16203 121.0 -0.24472028 0.9695774 -0.005634986
118.0 171.41443 121.0 -0.24472028 0.9695774 -0.005634986
117.0 171.16785 122.0 -0.24472028 0.9695774 -0.005634986
117.0 171.17094 123.0 -0.24174888 0.9703357 -0.0024704798
114.0 85.70873 58.0 -0.30341431 -0.9528516 -0.0036857566
114.0 85.704865 59.0 -0.30341431 -0.9528516 -0.0036857566
126.0 172.50047 59.0 -0.037931662 0.99925506 0.007110708
127.0 172.53844 59.0 -0.037931662 0.99925506 0.007110708
126.0 172.49336 60.0 -0.037931662 0.99925506 0.007110708
127.0 172.53131 60.0 -0.037931662 0.99925506 0.007110708
117.0 84.82745 130.0 -0.23859257 -0.971093 0.007208053
117.0 84.83488 131.0 -0.23859257 -0.971093 0.007208053
118.0 84.58918 131.0 -0.23859257 -0.971093 0.007208053
115.0 85.38978 57.0 -0.30438858 -0.95254785 -0.0004094477
115.0 85.38934 58.0 -0.30438858 -0.95254785 -0.0004094477
128.0 172.55054 61.0 0.019093188 0.9997948 -0.006768247
129.0 172.53143 61.0 0.019093188 0.9997948 -0.006768247
129.0 172.53821 62.0 0.019093188 0.9997948 -0.006768247
139.0 171.17159 130.0 0.2490919 0.9684557 0.0068448526
139.0 171.16452 131.0 0.2490919 0.9684557 0.0068448526
138.0 171.40976 129.0 0.23380224 0.97228056 -0.0026432518
138.0 171.41248 130.0 0.23380224 0.97228056 -0.0026432518
138.0 171.41519 131.0 0.23380224 0.97228056 -0.0026432518
114.0 85.71758 56.0 -0.3102434 -0.95063865 -0.0059359684
115.0 85.39123 56.0 -0.3102434 -0.95063865 -0.0059359684
114.0 85.711334 57.0 -0.3102434 -0.95063865 -0.0059359684
142.0 170.29126 58.0 0.30341572 0.9528512 -0.0036851852
142.0 170.29514 59.0 0.30341572 0.9528512 -0.0036851852
129.0 172.54146 58.0 0.018526698 0.999805 0.006838919
129.0 172.53462 59.0 0.018526698 0.999805 0.006838919
128.0 172.54631 60.0 0.018526698 0.999805 0.006838919
129.0 172.52777 60.0 0.018526698 0.999805 0.006838919
131.0 172.44211 61.0 0.07443584 0.9972039 -0.00660856
132.0 172.36746 61.0 0.07443584 0.9972039 -0.00660856
131.0 172.44873 62.0 0.07443584 0.9972039 -0.00660856
141.0 170.61021 57.0 0.30439004 0.9525474 -0.0004087991
141.0 170.61066 58.0 0.30439004 0.9525474 -0.0004087991
141.0 170.60876 56.0 0.3102444 0.9506383 -0.005934846
142.0 170.28241 56.0 0.3102444 0.9506383 -0.005934846
142.0 170.28865 57.0 0.3102444 0.9506383 -0.005934846
131.0 172.44618 59.0 0.07394754 0.99724025 0.006602994
131.0 172.43956 60.0 0.07394754 0.99724025 0.006602994
132.0 172.3654 60.0 0.07394754 0.99724025 0.006602994
133.0 172.2667 61.0 0.12855887 0.9916815 -0.006357719
134.0 172.13705 61.0 0.12855887 0.9916815 -0.006357719
134.0 172.14346 62.0 0.12855887 0.9916815 -0.006357719
139.0 171.16829 195.0 0.2519715 0.96770275 0.007862108
139.0 171.16017 196.0 0.2519715 0.96770275 0.007862108
140.0 170.8998 196.0 0.2519715 0.96770275 0.007862108
138.0 171.41168 194.0 0.23816004 0.97122335 -0.0022363767
138.0 171.41399 195.0 0.23816004 0.97122335 -0.0022363767
138.0 171.41629 196.0 0.23816004 0.97122335 -0.0022363767
139.0 171.16736 194.0 0.23728529 0.971429 0.004631069
117.0 84.8317 195.0 -0.25197107 -0.96770287 0.007859429
116.0 85.100204 196.0 -0.25197107 -0.96770287 0.007859429
117.0 84.83982 196.0 -0.25197107 -0.96770287 0.007859429
118.0 84.58831 194.0 -0.23815955 -0.9712235 -0.0022389586
118.0 84.586 195.0 -0.23815955 -0.9712235 -0.0022389586
118.0 84.583694 196.0 -0.23815955 -0.9712235 -0.0022389586
96.0 97.00968 93.0 -0.7213107 -0.69258827 -0.0056866226
96.0 97.00147 94.0 -0.7213107 -0.69258827 -0.0056866226
117.0 84.83264 194.0 -0.2372848 -0.9714291 0.0046287407
99.0 161.82329 168.0 -0.6371011 0.7707775 -0.0020352658
100.0 162.6525 169.0 -0.6371011 0.7707775 -0.0020352658
134.0 172.14236 59.0 0.12807506 0.9917446 0.0062856665
133.0 172.26517 60.0 0.12807506 0.9917446 0.0062856665
134.0 172.13603 60.0 0.12807506 0.9917446 0.0062856665
95.0 98.08569 90.0 -0.7395066 -0.6731267 -0.0055190767
95.0 98.07749 91.0 -0.7395066 -0.6731267 -0.0055190767
136.0 171.81863 61.0 0.18031576 0.98359114 -0.0058895345
136.0 171.82463 62.0 0.18031576 0.98359114 -0.0058895345
145.0 169.17648 174.0 0.38952863 0.9210141 0.0007469559
146.0 168.75356 174.0 0.38952863 0.9210141 0.0007469559
96.0 97.005196 91.0 -0.7207774 -0.69315 0.0048050676
96.0 97.01213 92.0 -0.7207774 -0.69315 0.0048050676
157.0 94.17667 168.0 0.6370705 -0.7708029 -0.002035017
156.0 93.34753 169.0 0.6370705 -0.7708029 -0.002035017
110.0 87.246445 174.0 -0.38953066 -0.9210132 0.00074613054
111.0 86.82351 174.0 -0.38953066 -0.9210132 0.00074613054
136.0 171.82451 59.0 0.18005213 0.983639 0.005958523
136.0 171.81845 60.0 0.18005213 0.983639 0.005958523
160.0 158.99031 93.0 0.7212751 0.6926254 -0.0056822556
160.0 158.9985 94.0 0.7212751 0.6926254 -0.0056822556
156.0 162.65245 169.0 0.636399 0.7713571 -0.002141042
152.0 165.5311 194.0 0.5317468 0.84690076 -0.002110943
152.0 165.53358 195.0 0.5317468 0.84690076 -0.002110943
152.0 165.53607 196.0 0.5317468 0.84690076 -0.002110943
96.0 158.99464 190.0 -0.7185434 0.6954728 -0.0035948257
160.0 97.00533 190.0 0.7184974 -0.69552046 -0.0035861218
160.0 158.99405 190.0 0.71905047 0.69494784 -0.0037305802
96.0 97.00598 190.0 -0.71909535 -0.6949014 -0.0037315718
135.0 171.99802 190.0 0.17992212 0.98365974 -0.006442376
136.0 171.81511 190.0 0.17992212 0.98365974 -0.006442376
137.0 171.6322 190.0 0.17992212 0.98365974 -0.006442376
136.0 171.82166 191.0 0.17992212 0.98365974 -0.006442376
136.0 171.8282 192.0 0.17992212 0.98365974 -0.006442376
161.0 157.91435 90.0 0.7394469 0.6731923 -0.0055138576
161.0 157.92255 91.0 0.7394469 0.6731923 -0.0055138576
134.0 172.14244 191.0 0.1499082 0.9886707 0.0075972183
135.0 171.99081 191.0 0.1499082 0.9886707 0.0075972183
134.0 172.13475 192.0 0.1499082 0.9886707 0.0075972183
135.0 171.98312 192.0 0.1499082 0.9886707 0.0075972183
151.0 166.1575 192.0 0.5322387 0.8465941 -0.0006572052
152.0 165.52882 192.0 0.5322387 0.8465941 -0.0006572052
160.0 158.99478 91.0 0.7207445 0.6931842 0.0048017334
160.0 158.98785 92.0 0.7207445 0.6931842 0.0048017334
100.0 93.34751 169.0 -0.6364376 -0.77132523 -0.0021406421
119.0 84.3678 190.0 -0.17991872 -0.9836604 -0.0064408598
120.0 84.18489 190.0 -0.17991872 -0.9836604 -0.0064408598
121.0 84.00198 190.0 -0.17991872 -0.9836604 -0.0064408598
120.0 84.17834 191.0 -0.17991872 -0.9836604 -0.0064408598
120.0 84.17179 192.0 -0.17991872 -0.9836604 -0.0064408598
121.0 84.009186 191.0 -0.1499075 -0.9886708 0.007597937
122.0 83.85756 191.0 -0.1499075 -0.9886708 0.007597937
121.0 84.01688 192.0 -0.1499075 -0.9886708 0.007597937
122.0 83.86525 192.0 -0.1499075 -0.9886708 0.007597937
96.0 158.99022 93.0 -0.7225691 0.6912763 -0.005562027
96.0 158.99826 94.0 -0.7225691 0.6912763 -0.005562027
117.0 84.829636 61.0 -0.23010252 -0.9731482 -0.005947628
118.0 84.59318 61.0 -0.23010252 -0.9731482 -0.005947628
118.0 84.58707 62.0 -0.23010252 -0.9731482 -0.005947628
116.0 85.09728 59.0 -0.27061838 -0.96268666 -0.00032444778
95.0 157.92186 91.0 -0.74049276 0.6720426 -0.0054049115
95.0 157.9299 92.0 -0.74049276 0.6720426 -0.0054049115
117.0 84.82917 58.0 -0.24048406 -0.97065306 0.00033177392
117.0 84.82951 59.0 -0.24048406 -0.97065306 0.00033177392
118.0 84.58606 59.0 -0.23201671 -0.9726815 0.0076714335
117.0 84.83247 60.0 -0.23201671 -0.9726815 0.0076714335
118.0 84.59394 60.0 -0.23201671 -0.9726815 0.0076714335
96.0 158.9966 91.0 -0.72226053 0.69160527 0.004674569
96.0 158.98984 92.0 -0.72226053 0.69160527 0.004674569
138.0 171.40681 61.0 0.23010442 0.97314775 -0.005948779
139.0 171.17036 61.0 0.23010442 0.97314775 -0.005948779
138.0 171.41292 62.0 0.23010442 0.97314775 -0.005948779
140.0 170.90271 59.0 0.27061564 0.96268743 -0.0003215026
160.0 97.0098 93.0 0.7225243 -0.69132316 -0.0055648806
160.0 97.00175 94.0 0.7225243 -0.69132316 -0.0055648806
139.0 171.17082 58.0 0.24048708 0.9706523 0.00033445042
139.0 171.17049 59.0 0.24048708 0.9706523 0.00033445042
138.0 171.41394 59.0 0.23201928 0.9726809 0.007674463
138.0 171.40605 60.0 0.23201928 0.9726809 0.007674463
139.0 171.16751 60.0 0.23201928 0.9726809 0.007674463
161.0 98.07812 91.0 0.7404224 -0.67212015 -0.0053984686
161.0 98.07008 92.0 0.7404224 -0.67212015 -0.0053984686
138.0 171.40712 192.0 0.20639582 0.9784366 -0.007911921
137.0 171.62614 193.0 0.20639582 0.9784366 -0.007911921
138.0 171.4152 193.0 0.20639582 0.9784366 -0.007911921
138.0 171.40733 190.0 0.23311882 0.9724282 -0.0062469128
139.0 171.16762 190.0 0.23311882 0.9724282 -0.0062469128
160.0 97.00343 91.0 0.7222169 -0.6916508 0.004673584
160.0 97.01019 92.0 0.7222169 -0.6916508 0.004673584
137.0 171.62721 191.0 0.20889531 0.9779158 0.006586597
138.0 171.4136 191.0 0.20889531 0.9779158 0.006586597
137.0 171.62048 192.0 0.20889531 0.9779158 0.006586597
118.0 84.59288 192.0 -0.20639595 -0.9784365 -0.007913649
118.0 84.58479 193.0 -0.20639595 -0.9784365 -0.007913649
119.0 84.37385 193.0 -0.20639595 -0.9784365 -0.007913649
117.0 84.83238 190.0 -0.23311906 -0.97242814 -0.0062438133
118.0 84.59265 190.0 -0.23311906 -0.97242814 -0.0062438133
118.0 84.586395 191.0 -0.20889631 -0.9779156 0.0065895156
119.0 84.37278 191.0 -0.20889631 -0.9779156 0.0065895156
119.0 84.379524 192.0 -0.20889631 -0.9779156 0.0065895156
115.0 85.39414 61.0 -0.28266114 -0.9592006 -0.0060741906
116.0 85.09946 61.0 -0.28266114 -0.9592006 -0.0060741906
115.0 85.38781 62.0 -0.28266114 -0.9592006 -0.0060741906
151.0 166.15843 193.0 0.5323307 0.84653616 -0.0007915788
152.0 165.5296 193.0 0.5323307 0.84653616 -0.0007915788
104.0 90.4689 194.0 -0.53174657 -0.8469009 -0.002113626
104.0 90.46641 195.0 -0.53174657 -0.8469009 -0.002113626
104.0 90.46391 196.0 -0.53174657 -0.8469009 -0.002113626
115.0 85.38752 59.0 -0.28169712 -0.95946723 0.0083262585
115.0 85.3962 60.0 -0.28169712 -0.95946723 0.0083262585
116.0 85.1026 60.0 -0.28169712 -0.95946723 0.0083262585
95.0 157.93378 170.0 -0.73001176 0.68342185 0.004164249
95.0 157.92769 171.0 -0.73001176 0.68342185 0.004164249
96.0 158.99586 171.0 -0.73001176 0.68342185 0.004164249
95.0 157.9216 172.0 -0.73001176 0.68342185 0.004164249
161.0 98.066086 170.0 0.729925 -0.6835147 0.0041445447
160.0 97.00425 171.0 0.729925 -0.6835147 0.0041445447
161.0 98.07215 171.0 0.729925 -0.6835147 0.0041445447
161.0 98.07822 172.0 0.729925 -0.6835147 0.0041445447
95.0 98.066025 170.0 -0.72954935 -0.6839155 0.004168805
95.0 98.07212 171.0 -0.72954935 -0.6839155 0.004168805
96.0 97.005394 171.0 -0.72954935 -0.6839155 0.004168805
95.0 98.07821 172.0 -0.72954935 -0.6839155 0.004168805
161.0 157.93411 170.0 0.72945887 0.6840121 0.004150262
160.0 158.99449 171.0 0.72945887 0.6840121 0.004150262
161.0 157.92805 171.0 0.72945887 0.6840121 0.004150262
161.0 157.92198 172.0 0.72945887 0.6840121 0.004150262
140.0 170.90053 61.0 0.28265858 0.95920134 -0.006076172
141.0 170.60585 61.0 0.28265858 0.95920134 -0.006076172
141.0 170.61218 62.0 0.28265858 0.95920134 -0.006076172
104.0 90.471176 192.0 -0.53224343 -0.8465911 -0.0006578945
105.0 89.84248 192.0 -0.53224343 -0.8465911 -0.0006578945
104.0 90.47039 193.0 -0.53233284 -0.8465348 -0.0007885282
105.0 89.84155 193.0 -0.53233284 -0.8465348 -0.0007885282
141.0 170.61247 59.0 0.28169417 0.95946807 0.0083290385
140.0 170.89738 60.0 0.28169417 0.95946807 0.0083290385
141.0 170.60379 60.0 0.28169417 0.95946807 0.0083290385
103.0 91.132286 157.0 -0.5636123 -0.82603544 -0.0025786334
116.0 170.90402 192.0 -0.27657244 0.9609657 0.0072528995
116.0 170.89647 193.0 -0.27657244 0.9609657 0.0072528995
115.0 170.60112 194.0 -0.27657244 0.9609657 0.0072528995
116.0 170.88893 194.0 -0.27657244 0.9609657 0.0072528995
110.0 168.75272 171.0 -0.39325204 0.91942436 0.003418718
111.0 169.18044 171.0 -0.39325204 0.91942436 0.003418718
153.0 164.86765 157.0 0.56351054 0.8261049 -0.002571799
115.0 170.60883 195.0 -0.27585703 0.9611698 -0.0074502677
116.0 170.89583 195.0 -0.27585703 0.9611698 -0.0074502677
111.0 169.18268 172.0 -0.39391464 0.9191445 -0.0021521053
104.0 90.46875 130.0 -0.5404313 -0.841374 -0.0048795333
104.0 90.46295 131.0 -0.5404313 -0.841374 -0.0048795333
104.0 90.47317 129.0 -0.540697 -0.8412174 0.0
152.0 165.53131 130.0 0.5404955 0.84133285 -0.004863458
152.0 165.5371 131.0 0.5404955 0.84133285 -0.004863458
152.0 165.52687 129.0 0.54072964 0.8411964 -0.0
145.0 86.82482 94.0 0.37856612 -0.92557156 -0.0022442755
145.0 86.8224 95.0 0.37856612 -0.92557156 -0.0022442755
145.0 86.82114 93.0 0.3762855 -0.926495 0.0040244963
145.0 86.81952 171.0 0.3932768 -0.91941375 0.003424167
146.0 87.24727 171.0 0.3932768 -0.91941375 0.003424167
111.0 169.17514 94.0 -0.3787108 0.9255123 -0.0022527592
111.0 169.17758 95.0 -0.3787108 0.9255123 -0.0022527592
111.0 169.17882 93.0 -0.3764278 0.9264372 0.00402934
145.0 86.81731 172.0 0.3939381 -0.91913444 -0.002152458
112.0 86.41962 60.0 -0.33358762 -0.9426982 -0.0062780436
113.0 86.05909 61.0 -0.33358762 -0.9426982 -0.0062780436
113.0 86.05243 62.0 -0.33358762 -0.9426982 -0.0062780436
111.0 86.82582 58.0 -0.38002738 -0.9249752 0.00018916871
150.0 166.7412 155.0 0.50699675 0.86193836 -0.004072969
151.0 166.153 155.0 0.50699675 0.86193836 -0.004072969
112.0 86.41972 58.0 -0.34244606 -0.93953747 -0.00019070893
113.0 86.05524 58.0 -0.34244606 -0.93953747 -0.00019070893
112.0 86.41952 59.0 -0.34244606 -0.93953747 -0.00019070893
113.0 86.05797 59.0 -0.3355847 -0.94199055 0.0060573043
113.0 86.0644 60.0 -0.3355847 -0.94199055 0.0060573043
114.0 85.70815 60.0 -0.3355847 -0.94199055 0.0060573043
151.0 166.15204 156.0 0.5251032 0.85102373 0.005021883
152.0 165.5291 157.0 0.5251032 0.85102373 0.005021883
144.0 169.58038 60.0 0.33358747 0.94269824 -0.0062762457
143.0 169.9409 61.0 0.33358747 0.94269824 -0.0062762457
143.0 169.94756 62.0 0.33358747 0.94269824 -0.0062762457
145.0 169.17418 58.0 0.3800262 0.9249757 0.0001886825
150.0 166.7414 153.0 0.50806075 0.86132103 0.0005891389
150.0 166.7407 154.0 0.50806075 0.86132103 0.0005891389
151.0 166.15085 154.0 0.50806075 0.86132103 0.0005891389
143.0 169.94475 58.0 0.34244654 0.9395373 -0.00019143216
144.0 169.58028 58.0 0.34244654 0.9395373 -0.00019143216
144.0 169.58047 59.0 0.34244654 0.9395373 -0.00019143216
143.0 169.94202 59.0 0.33558428 0.94199073 0.006057247
142.0 170.29184 60.0 0.33558428 0.94199073 0.006057247
143.0 169.9356 60.0 0.33558428 0.94199073 0.006057247
105.0 89.84701 155.0 -0.5071874 -0.86182624 -0.0040605646
106.0 89.25851 155.0 -0.5071874 -0.86182624 -0.0040605646
88.0 108.38514 79.0 -0.89920706 -0.43752024 0.0016354145
88.0 108.38888 80.0 -0.89920706 -0.43752024 0.0016354145
168.0 147.61427 79.0 0.8983143 0.439351 0.0014479647
88.0 147.61476 79.0 -0.89928406 0.43736202 0.0016286795
88.0 147.61104 80.0 -0.89928406 0.43736202 0.0016286795
168.0 108.385735 79.0 0.89832944 -0.4393201 0.0014467356
105.0 89.84799 156.0 -0.5252042 -0.8509615 0.005009513
104.0 90.47107 157.0 -0.5252042 -0.8509615 0.005009513
106.0 89.258385 153.0 -0.5082376 -0.86121666 0.00061828905
105.0 89.84924 154.0 -0.5082376 -0.86121666 0.00061828905
106.0 89.2591 154.0 -0.5082376 -0.86121666 0.00061828905
110.0 168.75484 162.0 -0.3829528 0.9237543 -0.005015111
111.0 169.17482 163.0 -0.3829528 0.9237543 -0.005015111
111.0 169.17485 161.0 -0.38557184 0.92267 0.0038000504
111.0 169.17075 162.0 -0.38557184 0.92267 0.0038000504
146.0 87.24539 162.0 0.383049 -0.92371434 -0.0050261603
145.0 86.825264 163.0 0.383049 -0.92371434 -0.0050261603
145.0 86.82497 161.0 0.38568246 -0.9226237 0.0038198468
145.0 86.8291 162.0 0.38568246 -0.9226237 0.0038198468
91.0 103.18697 77.0 -0.81676835 -0.5769384 -0.0056212964
92.0 101.771286 77.0 -0.81676835 -0.5769384 -0.0056212964
92.0 101.761536 78.0 -0.81676835 -0.5769384 -0.0056212964
92.0 101.75179 79.0 -0.81676835 -0.5769384 -0.0056212964
143.0 169.94604 176.0 0.3487701 0.93720627 -0.0019593164
144.0 169.5739 176.0 0.3487701 0.93720627 -0.0019593164
144.0 169.57599 177.0 0.3487701 0.93720627 -0.0019593164
144.0 169.57808 178.0 0.3487701 0.93720627 -0.0019593164
143.0 169.95006 175.0 0.35084766 0.9364174 0.005326661
144.0 169.5754 175.0 0.35084766 0.9364174 0.005326661
92.0 101.763245 76.0 -0.8162166 -0.5776838 0.008479935
91.0 152.813 77.0 -0.8167593 0.5769509 -0.0056499294
92.0 154.22865 77.0 -0.8167593 0.5769509 -0.0056499294
92.0 154.23845 78.0 -0.8167593 0.5769509 -0.0056499294
92.0 154.24823 79.0 -0.8167593 0.5769509 -0.0056499294
112.0 86.42609 176.0 -0.34876966 -0.93720645 -0.0019579811
113.0 86.05395 176.0 -0.34876966 -0.93720645 -0.0019579811
112.0 86.423996 177.0 -0.34876966 -0.93720645 -0.0019579811
112.0 86.42191 178.0 -0.34876966 -0.93720645 -0.0019579811
112.0 86.424614 175.0 -0.350846 -0.93641806 0.0053241164
113.0 86.04994 175.0 -0.350846 -0.93641806 0.0053241164
92.0 154.23654 76.0 -0.81624806 0.5776399 0.008444885
164.0 154.22835 77.0 0.81629187 0.5776128 -0.005571017
165.0 152.81512 77.0 0.81629187 0.5776128 -0.005571017
164.0 154.23799 78.0 0.81629187 0.5776128 -0.005571017
164.0 154.24763 79.0 0.81629187 0.5776128 -0.005571017
144.0 86.41926 75.0 0.3457155 -0.93832916 0.004384862
143.0 86.0555 76.0 0.3457155 -0.93832916 0.004384862
144.0 86.42393 76.0 0.3457155 -0.93832916 0.004384862
143.0 86.05323 77.0 0.3474717 -0.93767136 -0.005983008
144.0 86.4238 77.0 0.3474717 -0.93767136 -0.005983008
164.0 154.2361 76.0 0.8157644 0.5783237 0.008371086
89.0 106.47251 58.0 -0.8715964 -0.49015555 0.008202917
89.0 106.470215 59.0 -0.87068725 -0.4918214 -0.003927499
89.0 106.46223 60.0 -0.87068725 -0.4918214 -0.003927499
167.0 149.52834 58.0 0.87128246 0.49071452 0.008135445
167.0 149.5304 59.0 0.87038535 0.49235532 -0.0039484953
167.0 149.5384 60.0 0.87038535 0.49235532 -0.0039484953
167.0 106.471985 58.0 0.87133586 -0.49061975 0.008128703
167.0 106.46953 59.0 0.87046903 -0.49220738 -0.003939833
167.0 106.46152 60.0 0.87046903 -0.49220738 -0.003939833
89.0 149.52702 58.0 -0.8716611 0.49004036 0.008207538
89.0 149.52992 59.0 -0.87077504 0.49166596 -0.0039226385
89.0 149.5379 60.0 -0.87077504 0.49166596 -0.0039226385
164.0 101.77182 77.0 0.81626004 -0.5776575 -0.005600599
165.0 103.184875 77.0 0.81626004 -0.5776575 -0.005600599
164.0 101.76213 78.0 0.81626004 -0.5776575 -0.005600599
164.0 101.75243 79.0 0.81626004 -0.5776575 -0.005600599
112.0 169.58073 75.0 -0.34572437 0.9383259 0.0043863347
112.0 169.57607 76.0 -0.34572437 0.9383259 0.0043863347
113.0 169.9445 76.0 -0.34572437 0.9383259 0.0043863347
112.0 169.57619 77.0 -0.34748042 0.93766814 -0.0059820167
113.0 169.94676 77.0 -0.34748042 0.93766814 -0.0059820167
164.0 101.764015 76.0 0.81575626 -0.57833576 0.008333546
151.0 89.84709 95.0 0.52222955 -0.8528047 -0.0006094576
151.0 89.846375 96.0 0.52222955 -0.8528047 -0.0006094576
151.0 89.848 94.0 0.5224196 -0.8526881 -0.00088970934
105.0 166.15295 95.0 -0.5223213 0.8527486 -0.0006161018
105.0 166.15367 96.0 -0.5223213 0.8527486 -0.0006161018
105.0 166.15204 94.0 -0.52250373 0.8526365 -0.0008852346
144.0 86.42177 61.0 0.34767574 -0.93759745 0.0057058902
143.0 86.05704 62.0 0.34767574 -0.93759745 0.0057058902
144.0 86.42785 62.0 0.34767574 -0.93759745 0.0057058902
112.0 169.57823 61.0 -0.34767658 0.93759716 0.0057044346
112.0 169.57214 62.0 -0.34767658 0.93759716 0.0057044346
113.0 169.94296 62.0 -0.34767658 0.93759716 0.0057044346
141.0 170.60832 192.0 0.31307462 0.9496981 -0.0076054395
142.0 170.27867 192.0 0.31307462 0.9496981 -0.0076054395
143.0 169.949 192.0 0.31307462 0.9496981 -0.0076054395
142.0 170.28667 193.0 0.31307462 0.9496981 -0.0076054395
143.0 169.93974 190.0 0.33447298 0.9423836 -0.0064039784
143.0 169.94655 191.0 0.33447298 0.9423836 -0.0064039784
142.0 170.29034 190.0 0.31263593 0.949851 0.0064739645
141.0 170.61267 191.0 0.31263593 0.949851 0.0064739645
142.0 170.28352 191.0 0.31263593 0.949851 0.0064739645
113.0 86.05099 192.0 -0.31307328 -0.9496985 -0.007604818
114.0 85.72133 192.0 -0.31307328 -0.9496985 -0.007604818
115.0 85.39167 192.0 -0.31307328 -0.9496985 -0.007604818
114.0 85.71332 193.0 -0.31307328 -0.9496985 -0.007604818
113.0 86.06025 190.0 -0.33447176 -0.942384 -0.0064048
113.0 86.05345 191.0 -0.33447176 -0.942384 -0.0064048
109.0 168.29082 146.0 -0.42749393 0.90401584 -0.0020773008
109.0 168.29312 147.0 -0.42749393 0.90401584 -0.0020773008
114.0 85.70965 190.0 -0.31263468 -0.9498514 0.006473098
114.0 85.71646 191.0 -0.31263468 -0.9498514 0.006473098
115.0 85.38732 191.0 -0.31263468 -0.9498514 0.006473098
115.0 170.60567 192.0 -0.28993344 0.9570443 -0.002181183
115.0 170.60794 193.0 -0.28993344 0.9570443 -0.002181183
94.0 99.209915 65.0 -0.7512473 -0.66001236 0.0033534952
95.0 98.071686 65.0 -0.7512473 -0.66001236 0.0033534952
147.0 87.709404 146.0 0.4272005 -0.90415436 -0.0021588947
147.0 87.707016 147.0 0.4272005 -0.90415436 -0.0021588947
88.0 108.40288 88.0 -0.892692 -0.45059437 -0.00809965
88.0 108.3849 89.0 -0.892692 -0.45059437 -0.00809965
167.0 149.53197 90.0 0.872648 0.48832318 -0.0050912322
106.0 89.263115 80.0 -0.49236178 -0.87038165 0.003958879
106.0 89.26766 81.0 -0.49236178 -0.87038165 0.003958879
140.0 85.09597 192.0 0.2765703 -0.96096635 0.007251534
140.0 85.103516 193.0 0.2765703 -0.96096635 0.007251534
140.0 85.11106 194.0 0.2765703 -0.96096635 0.007251534
141.0 85.398865 194.0 0.2765703 -0.96096635 0.007251534
140.0 85.10416 195.0 0.27585495 -0.9611704 -0.0074506546
141.0 85.39116 195.0 0.27585495 -0.9611704 -0.0074506546
141.0 85.394325 192.0 0.28993484 -0.9570439 -0.0021851044
141.0 85.392044 193.0 0.28993484 -0.9570439 -0.0021851044
115.0 170.61359 102.0 -0.3047011 0.95244783 0.0006294416
115.0 170.61293 103.0 -0.3047011 0.95244783 0.0006294416
96.0 97.020706 60.0 -0.71782196 -0.6961972 -0.006409889
96.0 97.0115 61.0 -0.71782196 -0.6961972 -0.006409889
96.0 97.00229 62.0 -0.71782196 -0.6961972 -0.006409889
95.0 98.0766 61.0 -0.7377837 -0.6750047 0.0066225
95.0 98.08641 62.0 -0.7377837 -0.6750047 0.0066225
160.0 158.97932 60.0 0.71774864 0.6962729 -0.0063967737
160.0 158.98851 61.0 0.71774864 0.6962729 -0.0063967737
160.0 158.9977 62.0 0.71774864 0.6962729 -0.0063967737
161.0 157.92352 61.0 0.7376516 0.67514926 0.0065993713
161.0 157.91376 62.0 0.7376516 0.67514926 0.0065993713
160.0 97.01784 60.0 0.71863145 -0.695363 -0.00625466
160.0 97.00884 61.0 0.71863145 -0.695363 -0.00625466
160.0 96.99985 62.0 0.71863145 -0.695363 -0.00625466
161.0 98.06936 60.0 0.7375565 -0.67525345 0.006573662
161.0 98.079094 61.0 0.7375565 -0.67525345 0.006573662
161.0 98.08883 62.0 0.7375565 -0.67525345 0.006573662
96.0 158.98215 60.0 -0.7187053 0.6952866 -0.0062695714
96.0 158.99117 61.0 -0.7187053 0.6952866 -0.0062695714
96.0 159.00018 62.0 -0.7187053 0.6952866 -0.0062695714
95.0 157.93053 60.0 -0.73769575 0.67510104 0.00660077
95.0 157.92075 61.0 -0.73769575 0.67510104 0.00660077
95.0 157.91096 62.0 -0.73769575 0.67510104 0.00660077
114.0 170.29468 101.0 -0.3045093 0.9525089 0.0009011215
114.0 170.29373 102.0 -0.3045093 0.9525089 0.0009011215
150.0 166.7369 80.0 0.492356 0.87038493 0.003959436
150.0 166.73235 81.0 0.492356 0.87038493 0.003959436
170.0 142.83372 197.0 0.9400857 0.34089133 -0.00565013
170.0 142.8503 198.0 0.9400857 0.34089133 -0.00565013
86.0 113.16389 197.0 -0.93948174 -0.34255636 -0.0054025664
86.0 113.14811 198.0 -0.93948174 -0.34255636 -0.0054025664
86.0 142.8361 197.0 -0.9395134 0.34246966 -0.005397292
86.0 142.85187 198.0 -0.9395134 0.34246966 -0.005397292
170.0 113.16626 197.0 0.94011605 -0.3408078 -0.0056427796
170.0 113.149704 198.0 0.94011605 -0.3408078 -0.0056427796
165.0 103.18978 71.0 0.8380686 -0.5455601 -0.0022788884
165.0 103.1856 72.0 0.8380686 -0.5455601 -0.0022788884
165.0 103.18143 73.0 0.8380686 -0.5455601 -0.0022788884
91.0 152.81131 71.0 -0.83874136 0.544525 -0.0023201744
91.0 152.81557 72.0 -0.83874136 0.544525 -0.0023201744
91.0 152.81982 73.0 -0.83874136 0.544525 -0.0023201744
91.0 103.18881 71.0 -0.83873594 -0.54453343 -0.0023217094
91.0 103.18455 72.0 -0.83873594 -0.54453343 -0.0023217094
91.0 103.18029 73.0 -0.83873594 -0.54453343 -0.0023217094
165.0 152.8102 71.0 0.83808583 0.5455336 -0.0022847832
165.0 152.81438 72.0 0.83808583 0.5455336 -0.0022847832
165.0 152.81856 73.0 0.83808583 0.5455336 -0.0022847832
111.0 169.18019 174.0 -0.36142707 0.9323997 -0.0011395409
111.0 169.18141 175.0 -0.36142707 0.9323997 -0.0011395409
112.0 169.56905 175.0 -0.36142707 0.9323997 -0.0011395409
111.0 169.18265 176.0 -0.36142707 0.9323997 -0.0011395409
112.0 169.57074 173.0 -0.3634482 0.93161255 0.0018636733
112.0 169.56874 174.0 -0.3634482 0.93161255 0.0018636733
112.0 169.57336 172.0 -0.36255473 0.9319572 0.0031468084
111.0 169.18097 173.0 -0.36255473 0.9319572 0.0031468084
145.0 86.81982 174.0 0.36144575 -0.9323924 -0.0011435664
144.0 86.43094 175.0 0.36144575 -0.9323924 -0.0011435664
145.0 86.818596 175.0 0.36144575 -0.9323924 -0.0011435664
145.0 86.81737 176.0 0.36144575 -0.9323924 -0.0011435664
144.0 86.42923 173.0 0.3634729 -0.9316029 0.0018695809
144.0 86.43124 174.0 0.3634729 -0.9316029 0.0018695809
144.0 86.4266 172.0 0.36258772 -0.9319444 0.003142129
145.0 86.81903 173.0 0.36258772 -0.9319444 0.003142129
161.0 157.9281 65.0 0.75106734 0.66021717 0.0033321995
162.0 156.7905 65.0 0.75106734 0.66021717 0.0033321995
114.0 170.2933 103.0 -0.3040113 0.95266837 -0.00025832345
114.0 170.29358 104.0 -0.3040113 0.95266837 -0.00025832345
162.0 99.21005 65.0 0.75079167 -0.6605309 0.003271645
117.0 171.17038 153.0 -0.24635209 0.96918035 -0.00029289146
117.0 171.17033 154.0 -0.24587694 0.96930104 0.0002513514
139.0 84.82961 153.0 0.2474445 -0.968902 -0.00043129007
139.0 84.829666 154.0 0.24674086 -0.9690814 0.00036523736
95.0 157.9288 94.0 -0.73425376 0.6788638 0.003908394
95.0 157.92305 95.0 -0.73425376 0.6788638 0.003908394
161.0 98.07117 94.0 0.7342231 -0.678897 0.003906436
161.0 98.07692 95.0 0.7342231 -0.678897 0.003906436
96.0 96.99864 96.0 -0.73384583 -0.67931485 0.0012978727
95.0 98.07088 94.0 -0.7330197 -0.68019545 0.0040290114
95.0 98.0768 95.0 -0.7330197 -0.68019545 0.0040290114
160.0 159.00133 96.0 0.7338261 0.6793362 0.0012890969
161.0 157.92914 94.0 0.732997 0.6802199 0.004030856
161.0 157.92322 95.0 0.732997 0.6802199 0.004030856
161.0 98.07289 65.0 0.75094473 -0.66035193 -0.0041640187
151.0 166.15619 173.0 0.5319642 0.84676635 -0.00093131175
151.0 166.15729 174.0 0.5319642 0.84676635 -0.00093131175
152.0 165.52905 174.0 0.5319642 0.84676635 -0.00093131175
151.0 166.15839 175.0 0.5319642 0.84676635 -0.00093131175
105.0 89.85045 85.0 -0.5140107 -0.8577806 -0.0023336862
105.0 89.84773 86.0 -0.5140107 -0.8577806 -0.0023336862
105.0 89.85239 84.0 -0.5149617 -0.8572126 -0.0009926006
105.0 89.84478 82.0 -0.51352555 -0.85806197 0.0046011987
105.0 89.85014 83.0 -0.51352555 -0.85806197 0.0046011987
151.0 166.14954 85.0 0.5140073 0.85778266 -0.002331472
151.0 166.15225 86.0 0.5140073 0.85778266 -0.002331472
151.0 166.14761 84.0 0.51495594 0.85721606 -0.0009950242
94.0 156.78952 65.0 -0.75112754 0.66014385 -0.0041790907
95.0 157.92735 65.0 -0.75112754 0.66014385 -0.0041790907
151.0 166.15523 82.0 0.51352066 0.85806495 0.004598274
151.0 166.14986 83.0 0.51352066 0.85806495 0.004598274
140.0 170.90462 152.0 0.28132817 0.9596116 0.0001619962
140.0 170.90445 153.0 0.28132817 0.9596116 0.0001619962
141.0 170.61128 153.0 0.28132817 0.9596116 0.0001619962
104.0 90.46847 172.0 -0.5303927 -0.8477502 0.0017948337
104.0 90.47059 173.0 -0.5303927 -0.8477502 0.0017948337
140.0 170.9043 154.0 0.2807253 0.9597879 -0.00071323785
141.0 170.6118 154.0 0.2807253 0.9597879 -0.00071323785
141.0 170.61255 155.0 0.2807253 0.9597879 -0.00071323785
152.0 90.46623 73.0 0.55314463 -0.83307076 -0.004915506
153.0 91.13021 73.0 0.55314463 -0.83307076 -0.004915506
153.0 91.12431 74.0 0.55314463 -0.83307076 -0.004915506
137.0 171.63522 152.0 0.21667972 0.9762427 -3.6945523e-05
137.0 171.63527 153.0 0.21667972 0.9762427 -3.6945523e-05
138.0 171.41331 153.0 0.21667972 0.9762427 -3.6945523e-05
137.0 171.6353 154.0 0.21649338 0.976284 -0.00028685707
138.0 171.41354 154.0 0.21649338 0.976284 -0.00028685707
135.0 171.99586 153.0 0.1549738 0.98791856 4.3697088e-05
135.0 171.99585 154.0 0.15493481 0.9879247 -5.9959852e-06
132.0 172.37012 153.0 0.09471999 0.99550396 0.0001162241
132.0 172.37018 154.0 0.09442364 0.9955321 -0.0002638713
129.0 172.54285 152.0 0.036263958 0.99934226 -9.522494e-06
129.0 172.54286 153.0 0.036263958 0.99934226 -9.522494e-06
130.0 172.50658 153.0 0.0361923 0.9993448 -9.695649e-05
130.0 172.50667 154.0 0.0361923 0.9993448 -9.695649e-05
127.0 172.53879 153.0 -0.021140436 0.99977654 -5.1474726e-05
127.0 172.53879 154.0 -0.021086227 0.9997777 1.31600145e-05
124.0 172.37334 152.0 -0.07775007 0.99697286 -6.168336e-05
124.0 172.3734 153.0 -0.07775007 0.99697286 -6.168336e-05
125.0 172.45137 153.0 -0.07766078 0.99697983 4.3957512e-05
125.0 172.45132 154.0 -0.07766078 0.99697983 4.3957512e-05
122.0 172.14423 153.0 -0.13377307 0.991012 -6.906117e-05
122.0 172.14418 154.0 -0.13364115 0.9910298 8.618477e-05
104.0 90.47141 175.0 -0.53333414 -0.8459042 0.0009436005
104.0 90.47253 176.0 -0.53333414 -0.8459042 0.0009436005
119.0 171.63487 152.0 -0.18976942 0.9818287 -9.03014e-05
119.0 171.63496 153.0 -0.18976942 0.9818287 -9.03014e-05
103.0 164.86977 73.0 -0.55316687 0.833056 -0.0049178298
104.0 165.53378 73.0 -0.55316687 0.833056 -0.0049178298
103.0 164.87567 74.0 -0.55316687 0.833056 -0.0049178298
120.0 171.82822 153.0 -0.18958016 0.9818652 0.00013180444
120.0 171.82808 154.0 -0.18958016 0.9818652 0.00013180444
116.0 85.09569 152.0 -0.2810282 -0.9596995 9.672127e-05
115.0 85.38862 153.0 -0.2810282 -0.9596995 9.672127e-05
116.0 85.09579 153.0 -0.2810282 -0.9596995 9.672127e-05
115.0 85.38802 154.0 -0.28049207 -0.9598561 -0.0006708216
116.0 85.095795 154.0 -0.28049207 -0.9598561 -0.0006708216
115.0 85.38732 155.0 -0.28049207 -0.9598561 -0.0006708216
119.0 84.365234 152.0 -0.21614987 -0.9763602 -0.00012412225
118.0 84.58649 153.0 -0.21614987 -0.9763602 -0.00012412225
119.0 84.365105 153.0 -0.21614987 -0.9763602 -0.00012412225
118.0 84.58627 154.0 -0.21607782 -0.9763761 -0.00021842304
119.0 84.36497 154.0 -0.21607782 -0.9763761 -0.00021842304
121.0 84.00404 153.0 -0.15434091 -0.9880177 -5.205982e-05
121.0 84.00409 154.0 -0.15444234 -0.9880018 7.355192e-05
124.0 83.62997 153.0 -0.09413482 -0.99555945 4.1637064e-05
124.0 83.62989 154.0 -0.09395313 -0.9955766 -0.0001854438
127.0 83.45742 152.0 -0.03582465 -0.9993581 -5.1797313e-05
127.0 83.45737 153.0 -0.03582465 -0.9993581 -5.1797313e-05
126.0 83.49322 153.0 -0.035832793 -0.9993578 -4.2040498e-05
126.0 83.49317 154.0 -0.035832793 -0.9993578 -4.2040498e-05
105.0 89.84379 173.0 -0.53198165 -0.8467554 -0.000932199
104.0 90.47095 174.0 -0.53198165 -0.8467554 -0.000932199
105.0 89.84269 174.0 -0.53198165 -0.8467554 -0.000932199
105.0 89.84159 175.0 -0.53198165 -0.8467554 -0.000932199
129.0 83.46121 153.0 0.021492802 -0.999769 -7.532063e-05
140.0 85.10021 87.0 0.26905093 -0.96312 -0.0033951842
129.0 83.46122 154.0 0.021384127 -0.99977136 5.2775653e-05
139.0 84.8297 87.0 0.25292426 -0.9674664 0.0061666765
139.0 84.836075 88.0 0.25292426 -0.9674664 0.0061666765
140.0 85.0975 88.0 0.25292426 -0.9674664 0.0061666765
132.0 83.62692 152.0 0.07817262 -0.99693984 -9.1779606e-05
132.0 83.62683 153.0 0.07817262 -0.99693984 -9.1779606e-05
139.0 84.84204 89.0 0.2500282 -0.968198 -0.008863698
140.0 85.10028 89.0 0.2500282 -0.968198 -0.008863698
139.0 84.832886 90.0 0.2500282 -0.968198 -0.008863698
131.0 83.54845 153.0 0.078033715 -0.99695075 7.127387e-05
131.0 83.548515 154.0 0.078033715 -0.99695075 7.127387e-05
134.0 83.85582 153.0 0.13443723 -0.9909221 -0.00013458949
134.0 83.85588 154.0 0.13420795 -0.9909532 0.0001324689
137.0 84.36579 152.0 0.19072841 -0.98164284 -0.00020153262
137.0 84.36559 153.0 0.19072841 -0.98164284 -0.00020153262
136.0 84.17135 153.0 0.19036889 -0.9817126 0.00021453781
136.0 84.17157 154.0 0.19036889 -0.9817126 0.00021453781
140.0 85.09741 99.0 0.2761342 -0.961119 0.00046686112
141.0 85.38471 99.0 0.2761342 -0.961119 0.00046686112
141.0 85.38612 97.0 0.2770576 -0.9608531 -0.00068283227
140.0 85.09707 98.0 0.2770576 -0.9608531 -0.00068283227
141.0 85.385414 98.0 0.2770576 -0.9608531 -0.00068283227
137.0 84.36703 99.0 0.21275268 -0.9771061 6.7226574e-05
138.0 84.58476 99.0 0.21275268 -0.9771061 6.7226574e-05
138.0 84.58477 97.0 0.21281177 -0.9770932 -9.851723e-06
137.0 84.36696 98.0 0.21281177 -0.9770932 -9.851723e-06
138.0 84.58476 98.0 0.21281177 -0.9770932 -9.851723e-06
135.0 84.00337 99.0 0.15170978 -0.9884251 3.1119012e-05
135.0 84.00327 98.0 0.15163721 -0.9884362 0.00012360989
132.0 83.63023 99.0 0.09217397 -0.9957429 -4.228967e-05
132.0 83.63026 98.0 0.09214286 -0.9957458 -4.166871e-06
129.0 83.458595 99.0 0.03366676 -0.9994331 -0.000121408615
129.0 83.45847 100.0 0.03366676 -0.9994331 -0.000121408615
129.0 83.45863 98.0 0.033380043 -0.9994427 0.00023548238
130.0 83.492035 98.0 0.033380043 -0.9994427 0.00023548238
130.0 83.49227 99.0 0.033380043 -0.9994427 0.00023548238
127.0 83.4612 99.0 -0.023498107 -0.99972385 -3.1094307e-05
127.0 83.46114 98.0 -0.023593131 -0.99972165 8.33041e-05
124.0 83.627975 99.0 -0.080372505 -0.9967649 -2.516573e-05
124.0 83.62795 100.0 -0.080372505 -0.9967649 -2.516573e-05
125.0 83.54735 98.0 -0.08038879 -0.9967636 -5.644586e-06
125.0 83.54734 99.0 -0.08038879 -0.9967636 -5.644586e-06
122.0 83.85588 99.0 -0.13761592 -0.99048567 -2.5743873e-05
122.0 83.85592 98.0 -0.13760802 -0.99048674 -3.530517e-05
119.0 84.36829 99.0 -0.1960718 -0.98058957 3.1867145e-05
119.0 84.36833 100.0 -0.1960718 -0.98058957 3.1867145e-05
119.0 84.368355 98.0 -0.19592689 -0.9806185 -0.00014334172
115.0 170.6151 99.0 -0.2763687 0.9610516 0.00045426664
116.0 170.90266 99.0 -0.2763687 0.9610516 0.00045426664
115.0 170.61372 97.0 -0.2772736 0.96079075 -0.0006717678
115.0 170.61441 98.0 -0.2772736 0.96079075 -0.0006717678
116.0 170.903 98.0 -0.2772736 0.96079075 -0.0006717678
118.0 171.4151 99.0 -0.2130326 0.9770451 4.5095672e-05
119.0 171.63313 99.0 -0.2130326 0.9770451 4.5095672e-05
118.0 171.4151 97.0 -0.21306562 0.9770379 2.1150706e-06
118.0 171.4151 98.0 -0.21306562 0.9770379 2.1150706e-06
119.0 171.63318 98.0 -0.21306562 0.9770379 2.1150706e-06
121.0 171.99655 99.0 -0.15213318 0.98836 -1.9006233e-05
121.0 171.99664 98.0 -0.15199697 0.98838097 0.00015473407
124.0 172.36983 99.0 -0.0927461 0.9956898 -0.00011209614
124.0 172.3698 98.0 -0.09261358 0.99570215 5.1212573e-05
127.0 172.54172 99.0 -0.034310844 0.99941117 -0.00018411672
127.0 172.5419 100.0 -0.034310844 0.99941117 -0.00018411672
126.0 172.5077 98.0 -0.03392957 0.99942416 0.00029375046
126.0 172.5074 99.0 -0.03392957 0.99942416 0.00029375046
129.0 172.53876 99.0 0.02282796 0.9997394 -9.7602155e-05
129.0 172.53883 98.0 0.023025258 0.9997349 0.00014175255
132.0 172.37227 99.0 0.07972632 0.9968168 -8.4761625e-05
132.0 172.37234 100.0 0.07972632 0.9968168 -8.4761625e-05
131.0 172.45233 98.0 0.07984204 0.9968075 5.471342e-05
131.0 172.45229 99.0 0.07984204 0.9968075 5.471342e-05
134.0 172.144 99.0 0.13708094 0.9905599 -6.534584e-05
134.0 172.14401 98.0 0.13714829 0.9905505 1.5916823e-05
137.0 171.63176 99.0 0.19572558 0.9806587 1.3613851e-05
137.0 171.63174 100.0 0.19572558 0.9806587 1.3613851e-05
137.0 171.6317 98.0 0.19562064 0.98067963 -0.0001119251
149.0 88.71957 150.0 0.4736502 -0.8807106 -0.0020795797
150.0 89.25737 150.0 0.4736502 -0.8807106 -0.0020795797
149.0 88.7172 151.0 0.4736502 -0.8807106 -0.0020795797
116.0 85.09452 98.0 -0.2570249 -0.9664046 -0.0005173611
117.0 84.82856 98.0 -0.2570249 -0.9664046 -0.0005173611
117.0 84.828026 99.0 -0.2570249 -0.9664046 -0.0005173611
149.0 88.7099 148.0 0.4705779 -0.882334 0.006566694
149.0 88.71735 149.0 0.4705779 -0.882334 0.006566694
139.0 171.1713 98.0 0.25688228 0.9664426 -0.00049968326
140.0 170.9055 98.0 0.25688228 0.9664426 -0.00049968326
139.0 171.17181 99.0 0.25688228 0.9664426 -0.00049968326
114.0 170.2942 153.0 -0.30503443 0.95234114 -0.00054556265
115.0 170.61444 153.0 -0.303815 0.9527307 0.0007833072
114.0 170.29474 154.0 -0.303815 0.9527307 0.0007833072
115.0 170.61362 154.0 -0.303815 0.9527307 0.0007833072
115.0 170.6128 155.0 -0.303815 0.9527307 0.0007833072
141.0 85.3849 153.0 0.30585563 -0.9520777 -0.0006231332
142.0 85.706154 153.0 0.30585563 -0.9520777 -0.0006231332
142.0 85.7055 154.0 0.30585563 -0.9520777 -0.0006231332
141.0 85.385796 154.0 0.30447057 -0.9525213 0.00089043163
141.0 85.386734 155.0 0.30447057 -0.9525213 0.00089043163
152.0 90.47953 101.0 0.54268837 -0.8399174 -0.0052929525
153.0 91.12565 101.0 0.54268837 -0.8399174 -0.0052929525
153.0 91.12488 104.0 0.5488548 -0.83590364 0.0048435577
152.0 90.47347 102.0 0.54069924 -0.8412133 -0.0021395765
152.0 90.47093 103.0 0.54069924 -0.8412133 -0.0021395765
152.0 90.46838 104.0 0.54069924 -0.8412133 -0.0021395765
103.0 164.87422 101.0 -0.5428187 0.83983326 -0.005279742
104.0 165.52057 101.0 -0.5428187 0.83983326 -0.005279742
92.0 154.2447 193.0 -0.80101943 0.59863836 -5.371289e-05
92.0 154.2448 194.0 -0.80101943 0.59863836 -5.371289e-05
164.0 101.75524 193.0 0.8009966 -0.5986689 -3.814877e-05
164.0 101.75518 194.0 0.8009966 -0.5986689 -3.814877e-05
164.0 154.24571 193.0 0.8004881 0.5993486 0.000110969224
164.0 154.24553 194.0 0.8004881 0.5993486 0.000110969224
92.0 101.75432 193.0 -0.8005123 -0.5993163 9.668553e-05
92.0 101.75448 194.0 -0.8005123 -0.5993163 9.668553e-05
103.0 164.87498 104.0 -0.54899466 0.83581185 0.0048369863
104.0 165.52658 102.0 -0.5408386 0.84112364 -0.0021427607
104.0 165.52911 103.0 -0.5408386 0.84112364 -0.0021427607
104.0 165.53166 104.0 -0.5408386 0.84112364 -0.0021427607
148.0 88.18983 147.0 0.46043757 -0.88769007 -0.0018900231
