ply
format ascii 1.0
element vertex 2202
property float x
property float y
property float z
end_header
195.0 117.0 111.455574
196.0 117.0 111.473816
196.0 116.0 112.1857
197.0 117.0 111.45601
201.0 114.0 113.921104
201.0 115.0 113.007835
202.0 115.0 112.98639
200.0 115.0 112.999275
201.0 113.0 115.03223
202.0 113.0 115.00762
199.0 113.0 114.996315
200.0 113.0 115.02126
194.0 113.0 114.9916
195.0 113.0 115.01621
196.0 113.0 115.036446
197.0 113.0 115.01162
198.0 113.0 114.98679
201.0 111.0 117.782555
201.0 112.0 116.25825
200.0 111.0 117.77164
201.0 110.0 119.71455
202.0 110.0 119.6784
200.0 110.0 119.70626
195.0 110.0 119.6806
196.0 110.0 119.70954
197.0 110.0 119.67577
201.0 109.0 122.35511
200.0 109.0 122.35257
201.0 109.0 133.4139
200.0 109.0 133.42793
195.0 109.0 133.44235
196.0 109.0 133.40515
201.0 110.0 136.08958
202.0 110.0 136.12688
199.0 110.0 136.12857
200.0 110.0 136.09377
201.0 111.0 138.02461
200.0 111.0 138.02971
194.0 113.0 140.82863
195.0 113.0 140.80583
196.0 113.0 140.78304
197.0 113.0 140.80623
196.0 111.0 138.03647
196.0 112.0 139.55522
201.0 113.0 140.79173
202.0 113.0 140.81488
199.0 113.0 140.82005
200.0 113.0 140.79594
201.0 117.0 144.33708
202.0 117.0 144.355
199.0 117.0 144.36125
200.0 117.0 144.34259
195.0 117.0 144.34837
196.0 116.0 143.65036
196.0 117.0 144.33069
197.0 117.0 144.3493
201.0 118.0 144.99211
201.0 119.0 145.50757
202.0 119.0 145.52544
199.0 119.0 145.53333
200.0 119.0 145.5151
201.0 121.0 146.39449
201.0 122.0 146.76012
202.0 121.0 146.41156
199.0 121.0 146.41968
200.0 121.0 146.40236
200.0 122.0 146.76807
194.0 121.0 146.42259
195.0 121.0 146.40546
196.0 121.0 146.39218
196.0 122.0 146.75735
197.0 121.0 146.40941
201.0 123.0 147.04108
201.0 124.0 147.26915
202.0 124.0 147.28566
200.0 123.0 147.04855
200.0 124.0 147.2762
201.0 125.0 147.47536
201.0 126.0 147.57263
201.0 127.0 147.6699
202.0 126.0 147.58891
203.0 126.0 147.60518
199.0 126.0 147.59471
200.0 126.0 147.57814
200.0 127.0 147.67444
194.0 126.0 147.60004
195.0 126.0 147.585
196.0 125.0 147.47185
196.0 126.0 147.57446
196.0 127.0 147.6771
197.0 126.0 147.58957
198.0 126.0 147.60466
201.0 128.0 147.68416
201.0 129.0 147.65192
202.0 129.0 147.66818
199.0 129.0 147.67026
200.0 128.0 147.68741
200.0 129.0 147.65521
201.0 131.0 147.44562
201.0 132.0 147.28282
202.0 131.0 147.46193
199.0 131.0 147.4676
200.0 131.0 147.45107
200.0 132.0 147.28937
196.0 144.0 116.26133
197.0 144.0 116.25948
195.0 131.0 147.46059
195.0 132.0 147.28802
196.0 131.0 147.45042
196.0 132.0 147.27794
197.0 131.0 147.46556
201.0 133.0 147.04185
201.0 134.0 146.74501
202.0 134.0 146.76161
196.0 140.0 112.197296
196.0 141.0 112.977295
197.0 140.0 112.17819
195.0 115.0 112.993355
199.0 134.0 146.7699
200.0 133.0 147.04932
200.0 134.0 146.75313
201.0 135.0 146.42249
201.0 136.0 145.98215
201.0 137.0 145.54181
202.0 136.0 145.9994
203.0 136.0 146.01666
199.0 136.0 146.00888
200.0 136.0 145.99158
196.0 114.0 113.92642
196.0 115.0 113.01254
197.0 115.0 112.99072
194.0 136.0 146.00978
195.0 136.0 145.99226
196.0 135.0 146.42737
196.0 136.0 145.98088
196.0 137.0 145.53441
197.0 136.0 145.99844
198.0 136.0 146.016
201.0 138.0 144.95839
201.0 139.0 144.35843
202.0 138.0 144.9766
194.0 119.0 145.5368
195.0 119.0 145.51889
199.0 138.0 144.9873
200.0 138.0 144.96912
201.0 140.0 143.6163
201.0 141.0 142.8319
202.0 140.0 143.63585
199.0 140.0 143.64813
200.0 140.0 143.62863
196.0 127.0 108.14437
195.0 140.0 143.63153
196.0 140.0 143.61798
196.0 141.0 142.82149
197.0 140.0 143.63794
201.0 142.0 141.86147
202.0 142.0 141.88292
203.0 142.0 141.90437
197.0 119.0 110.275375
198.0 119.0 110.27513
199.0 142.0 141.89746
200.0 142.0 141.87605
201.0 143.0 140.82166
201.0 144.0 139.52979
202.0 144.0 139.55411
200.0 144.0 139.5476
195.0 144.0 139.54181
200.0 118.0 110.83117
196.0 118.0 144.98871
196.0 119.0 145.50374
196.0 120.0 146.01878
197.0 119.0 145.52193
198.0 119.0 145.54012
196.0 144.0 139.5223
197.0 144.0 139.54675
201.0 145.0 137.99255
202.0 145.0 138.02122
203.0 145.0 138.04988
199.0 145.0 138.04329
200.0 145.0 138.01369
195.0 138.0 144.97096
195.0 139.0 144.36278
196.0 138.0 144.9588
196.0 139.0 144.35045
197.0 138.0 144.97739
205.0 147.0 133.48105
191.0 146.0 136.10547
196.0 110.0 136.13475
197.0 110.0 136.1353
206.0 146.0 119.69424
190.0 145.0 138.0297
191.0 145.0 138.00119
206.0 145.0 117.801285
199.0 115.0 142.82982
200.0 115.0 142.82948
194.0 134.0 146.76988
195.0 133.0 147.05563
195.0 134.0 146.75317
189.0 145.0 117.7671
190.0 145.0 117.79363
206.0 145.0 138.00085
207.0 145.0 138.02759
191.0 143.0 115.00529
196.0 133.0 147.04468
196.0 134.0 146.74226
197.0 134.0 146.75899
206.0 143.0 140.81276
206.0 144.0 139.54189
189.0 144.0 139.55974
190.0 144.0 139.53519
190.0 142.0 141.88264
196.0 128.0 147.69476
190.0 140.0 143.6365
190.0 141.0 142.82268
201.0 145.0 117.81012
202.0 145.0 117.78183
190.0 138.0 144.97298
190.0 139.0 144.35378
189.0 136.0 146.01018
190.0 136.0 145.99202
189.0 134.0 146.76942
190.0 133.0 147.05695
190.0 134.0 146.75214
199.0 145.0 117.77447
200.0 145.0 117.803444
190.0 131.0 147.4569
190.0 132.0 147.28882
191.0 131.0 147.44011
190.0 128.0 147.69716
190.0 129.0 147.66125
191.0 128.0 147.68059
191.0 129.0 147.6447
189.0 126.0 147.60031
190.0 126.0 147.58386
191.0 125.0 147.47281
191.0 126.0 147.56741
191.0 127.0 147.66202
190.0 123.0 147.05359
190.0 124.0 147.27974
189.0 121.0 146.42369
190.0 121.0 146.40648
191.0 121.0 146.38928
195.0 145.0 138.01933
189.0 119.0 145.53775
190.0 119.0 145.51959
191.0 118.0 144.98474
191.0 119.0 145.50143
191.0 120.0 146.01814
190.0 117.0 144.34818
191.0 116.0 143.63725
191.0 117.0 144.32849
190.0 115.0 142.81891
191.0 114.0 141.89375
191.0 115.0 142.79701
196.0 145.0 137.99585
197.0 145.0 138.02419
198.0 145.0 138.05254
189.0 113.0 140.82591
190.0 113.0 140.8011
191.0 113.0 140.77628
191.0 111.0 138.02109
191.0 112.0 139.55276
190.0 110.0 136.11835
191.0 110.0 136.08118
191.0 109.0 133.40324
191.0 109.0 122.40704
190.0 110.0 119.69463
191.0 110.0 119.73148
191.0 111.0 117.794754
191.0 112.0 116.262314
189.0 113.0 114.98984
190.0 113.0 115.01453
191.0 113.0 115.03922
190.0 115.0 112.99359
191.0 114.0 113.92728
191.0 115.0 113.015274
190.0 117.0 111.46245
191.0 116.0 112.18381
191.0 117.0 111.48215
190.0 119.0 110.29223
191.0 118.0 110.83394
191.0 119.0 110.31053
189.0 121.0 109.38909
190.0 121.0 109.40626
191.0 121.0 109.42343
191.0 122.0 109.055565
190.0 123.0 108.75983
190.0 124.0 108.53172
191.0 123.0 108.77637
191.0 124.0 108.548256
189.0 126.0 108.21251
190.0 126.0 108.22877
191.0 125.0 108.340416
191.0 126.0 108.245026
191.0 127.0 108.149635
190.0 128.0 108.117035
190.0 129.0 108.150795
191.0 128.0 108.1331
191.0 129.0 108.166855
189.0 131.0 108.340866
190.0 131.0 108.35698
191.0 130.0 108.21109
190.0 133.0 108.7617
190.0 134.0 109.0564
189.0 136.0 109.802025
190.0 136.0 109.819115
189.0 138.0 110.82466
190.0 138.0 110.8426
189.0 140.0 112.16435
190.0 140.0 112.18349
189.0 142.0 113.91327
190.0 142.0 113.93423
206.0 144.0 116.293976
207.0 144.0 116.269485
206.0 142.0 113.944954
206.0 143.0 114.99527
207.0 142.0 113.9231
206.0 140.0 112.19044
206.0 141.0 113.0038
207.0 141.0 112.983574
206.0 138.0 110.85348
206.0 139.0 111.47221
207.0 138.0 110.83439
207.0 139.0 111.453125
206.0 136.0 109.83398
206.0 137.0 110.2862
207.0 136.0 109.81588
206.0 133.0 108.76912
206.0 134.0 109.07345
207.0 134.0 109.05618
206.0 131.0 108.36865
206.0 132.0 108.53667
207.0 131.0 108.351974
206.0 128.0 108.12677
206.0 129.0 108.1645
207.0 129.0 108.14811
206.0 126.0 108.24039
206.0 127.0 108.14923
207.0 126.0 108.224014
206.0 123.0 108.76866
206.0 124.0 108.54568
207.0 124.0 108.52904
206.0 121.0 109.417496
206.0 122.0 109.05441
207.0 121.0 109.40018
206.0 118.0 110.82448
206.0 119.0 110.30541
207.0 119.0 110.28703
206.0 116.0 112.17454
206.0 117.0 111.477165
207.0 117.0 111.45744
206.0 114.0 113.91699
206.0 115.0 113.00955
207.0 115.0 112.98787
206.0 113.0 115.03146
207.0 113.0 115.006744
206.0 111.0 117.783035
206.0 112.0 116.256195
206.0 110.0 119.71839
207.0 110.0 119.68166
206.0 109.0 122.38539
206.0 109.0 133.41371
206.0 110.0 136.08914
207.0 110.0 136.12636
206.0 111.0 138.024
206.0 113.0 140.78442
207.0 113.0 140.80948
206.0 114.0 141.89667
206.0 115.0 142.80577
207.0 115.0 142.82776
206.0 116.0 143.64073
206.0 117.0 144.33626
207.0 117.0 144.35596
206.0 118.0 144.98781
206.0 119.0 145.50797
207.0 119.0 145.52611
206.0 121.0 146.39453
206.0 122.0 146.76215
207.0 121.0 146.4117
206.0 123.0 147.04091
206.0 124.0 147.26968
207.0 124.0 147.28625
206.0 125.0 147.47502
206.0 126.0 147.57265
206.0 127.0 147.67026
207.0 126.0 147.58888
208.0 126.0 147.60512
206.0 128.0 147.68301
206.0 129.0 147.65253
207.0 129.0 147.66867
206.0 131.0 147.44513
206.0 132.0 147.2857
207.0 131.0 147.4614
206.0 133.0 147.0399
206.0 134.0 146.7468
207.0 133.0 147.0565
207.0 134.0 146.7634
206.0 135.0 146.41928
206.0 136.0 145.98303
207.0 136.0 146.00024
208.0 136.0 146.01744
206.0 138.0 144.95868
206.0 139.0 144.36382
207.0 138.0 144.97675
206.0 140.0 143.61656
206.0 141.0 142.83939
207.0 140.0 143.63585
206.0 142.0 141.86378
207.0 142.0 141.8848
208.0 142.0 141.9058
189.0 146.0 119.66909
190.0 146.0 119.69303
207.0 146.0 136.12822
181.0 147.0 133.39581
180.0 147.0 133.44066
215.0 147.0 122.38317
216.0 147.0 122.412834
187.0 146.0 136.13585
188.0 146.0 136.10526
189.0 146.0 136.09628
190.0 146.0 136.12846
208.0 146.0 119.72858
209.0 146.0 119.69803
210.0 146.0 119.66748
207.0 146.0 119.69813
188.0 145.0 117.76936
209.0 145.0 138.04906
208.0 145.0 138.03961
187.0 145.0 138.04768
188.0 145.0 138.0211
189.0 145.0 138.01884
209.0 145.0 117.783485
207.0 145.0 117.77922
208.0 145.0 117.80592
187.0 144.0 116.2561
188.0 144.0 116.27987
189.0 144.0 116.279434
190.0 144.0 116.25665
209.0 144.0 139.5396
207.0 144.0 139.55281
208.0 144.0 139.52957
188.0 143.0 140.79128
189.0 143.0 140.79642
190.0 143.0 140.82019
187.0 142.0 141.89474
188.0 141.0 142.81471
188.0 142.0 141.87361
214.0 119.0 110.28399
215.0 119.0 110.30225
214.0 118.0 110.84402
215.0 118.0 110.82505
189.0 141.0 142.82367
189.0 142.0 141.88092
216.0 118.0 110.82756
216.0 119.0 110.30683
217.0 119.0 110.28854
182.0 110.0 119.70421
191.0 147.0 133.37614
192.0 147.0 133.41574
193.0 147.0 133.45532
190.0 147.0 133.4275
204.0 147.0 122.3732
205.0 147.0 122.41261
206.0 147.0 122.422295
207.0 147.0 122.36619
187.0 140.0 143.64024
188.0 139.0 144.34103
188.0 140.0 143.62
189.0 139.0 144.3498
189.0 140.0 143.62886
187.0 137.0 145.52733
188.0 137.0 145.50798
188.0 138.0 144.97076
189.0 137.0 145.51462
189.0 138.0 144.97827
190.0 137.0 145.53401
186.0 135.0 146.42836
187.0 135.0 146.41025
188.0 134.0 146.77045
188.0 135.0 146.39214
188.0 136.0 146.01382
189.0 135.0 146.39658
190.0 135.0 146.41467
187.0 132.0 147.29048
187.0 133.0 147.05502
188.0 132.0 147.27325
188.0 133.0 147.03781
189.0 132.0 147.2749
189.0 133.0 147.0403
187.0 130.0 147.5908
188.0 129.0 147.67558
188.0 130.0 147.5741
188.0 131.0 147.47261
189.0 129.0 147.6752
189.0 130.0 147.57425
189.0 131.0 147.47331
190.0 130.0 147.59068
191.0 130.0 147.60712
187.0 127.0 147.67212
188.0 127.0 147.6556
188.0 128.0 147.68428
189.0 127.0 147.65497
189.0 128.0 147.68372
190.0 127.0 147.67122
187.0 125.0 147.46448
188.0 124.0 147.28886
188.0 125.0 147.44789
189.0 124.0 147.28854
189.0 125.0 147.44748
190.0 125.0 147.4641
187.0 122.0 146.76656
188.0 122.0 146.74959
188.0 123.0 147.04355
189.0 122.0 146.7491
189.0 123.0 147.04318
190.0 122.0 146.76617
187.0 120.0 146.0041
188.0 120.0 145.98639
189.0 120.0 145.9852
190.0 120.0 146.00304
187.0 118.0 144.98257
188.0 117.0 144.36182
188.0 118.0 144.96365
189.0 117.0 144.35835
189.0 118.0 144.96104
190.0 118.0 144.98003
187.0 116.0 143.64468
188.0 115.0 142.83113
188.0 116.0 143.624
189.0 115.0 142.82564
189.0 116.0 143.61926
190.0 116.0 143.63963
187.0 114.0 141.89328
188.0 114.0 141.87006
189.0 114.0 141.86359
190.0 114.0 141.88647
187.0 112.0 139.55261
188.0 112.0 139.52567
189.0 112.0 139.51836
190.0 112.0 139.54541
188.0 111.0 138.01144
189.0 111.0 138.00255
190.0 111.0 138.0351
188.0 110.0 136.13034
189.0 110.0 136.11919
188.0 109.0 133.3954
189.0 109.0 133.38147
190.0 109.0 133.44516
188.0 109.0 122.4148
189.0 109.0 122.436005
190.0 109.0 122.373
188.0 110.0 119.682205
189.0 110.0 119.69277
188.0 111.0 117.80246
189.0 111.0 117.80796
190.0 111.0 117.774925
187.0 112.0 116.26329
188.0 112.0 116.290184
189.0 112.0 116.29364
190.0 112.0 116.26648
187.0 114.0 113.92015
188.0 114.0 113.943306
189.0 114.0 113.94631
190.0 114.0 113.922966
187.0 116.0 112.16704
188.0 115.0 112.98816
188.0 116.0 112.18769
189.0 115.0 112.99136
189.0 116.0 112.191666
190.0 116.0 112.17094
187.0 118.0 110.8293
188.0 117.0 111.45673
188.0 118.0 110.848236
189.0 117.0 111.461136
189.0 118.0 110.85312
190.0 118.0 110.83448
187.0 120.0 109.80892
188.0 120.0 109.82662
189.0 119.0 110.27539
189.0 120.0 109.83146
190.0 120.0 109.81402
191.0 120.0 109.79658
187.0 122.0 109.047554
188.0 122.0 109.06441
188.0 123.0 108.7671
189.0 122.0 109.06864
189.0 123.0 108.77111
190.0 122.0 109.051735
187.0 125.0 108.34799
188.0 124.0 108.5262
188.0 125.0 108.364365
189.0 124.0 108.52996
189.0 125.0 108.367874
190.0 125.0 108.35168
187.0 127.0 108.14213
188.0 127.0 108.158264
188.0 128.0 108.12626
189.0 127.0 108.160965
189.0 128.0 108.12842
190.0 127.0 108.14503
187.0 130.0 108.221664
188.0 129.0 108.14172
188.0 130.0 108.23778
189.0 129.0 108.1432
189.0 130.0 108.238655
190.0 130.0 108.22248
187.0 132.0 108.52577
188.0 132.0 108.54212
188.0 133.0 108.76848
189.0 132.0 108.54194
189.0 133.0 108.76789
190.0 132.0 108.52553
187.0 135.0 109.398895
188.0 134.0 109.052155
188.0 135.0 109.41571
189.0 134.0 109.05122
189.0 135.0 109.414566
190.0 135.0 109.397705
187.0 137.0 110.28624
188.0 137.0 110.303764
189.0 137.0 110.30235
190.0 137.0 110.284775
187.0 139.0 111.45904
188.0 139.0 111.47755
189.0 139.0 111.476234
190.0 139.0 111.457664
187.0 141.0 112.98932
188.0 141.0 113.00915
189.0 141.0 113.00847
190.0 141.0 112.98863
187.0 143.0 114.99624
188.0 143.0 115.01781
189.0 143.0 115.017944
190.0 143.0 114.99684
209.0 143.0 115.01422
207.0 143.0 115.00326
208.0 143.0 115.026855
208.0 144.0 116.24524
209.0 141.0 112.991745
209.0 142.0 113.93269
210.0 142.0 113.91167
208.0 141.0 112.99884
208.0 142.0 113.94165
209.0 139.0 111.46596
209.0 140.0 112.18673
210.0 140.0 112.166565
207.0 140.0 112.17211
208.0 139.0 111.47197
208.0 140.0 112.19289
209.0 137.0 110.29946
209.0 138.0 110.83643
210.0 137.0 110.28018
207.0 137.0 110.286964
208.0 137.0 110.30628
208.0 138.0 110.84261
209.0 135.0 109.41586
210.0 135.0 109.397804
206.0 135.0 109.387505
207.0 135.0 109.40552
208.0 134.0 109.04601
208.0 135.0 109.42353
208.0 136.0 109.80105
209.0 132.0 108.53511
209.0 133.0 108.77069
207.0 132.0 108.52704
207.0 133.0 108.76205
208.0 132.0 108.54417
208.0 133.0 108.77917
209.0 130.0 108.23454
210.0 130.0 108.21791
206.0 130.0 108.21118
207.0 130.0 108.22778
208.0 129.0 108.14262
208.0 130.0 108.244385
208.0 131.0 108.34615
209.0 127.0 108.152214
209.0 128.0 108.12517
207.0 127.0 108.147064
207.0 128.0 108.11951
208.0 127.0 108.163475
208.0 128.0 108.13592
209.0 125.0 108.36051
210.0 125.0 108.34397
206.0 125.0 108.33982
207.0 125.0 108.35636
208.0 124.0 108.53053
208.0 125.0 108.372894
208.0 126.0 108.215256
209.0 122.0 109.05766
209.0 123.0 108.76506
207.0 122.0 109.055145
207.0 123.0 108.76195
208.0 122.0 109.0721
208.0 123.0 108.7789
209.0 120.0 109.82118
210.0 120.0 109.80339
206.0 120.0 109.8023
207.0 120.0 109.81976
208.0 119.0 110.2768
208.0 120.0 109.83722
208.0 121.0 109.39764
209.0 118.0 110.84339
210.0 118.0 110.82442
207.0 118.0 110.841934
208.0 117.0 111.464096
208.0 118.0 110.86057
209.0 116.0 112.18266
207.0 116.0 112.179634
208.0 115.0 112.99517
208.0 116.0 112.20035
209.0 114.0 113.93695
210.0 114.0 113.91381
207.0 114.0 113.932076
208.0 113.0 114.984505
208.0 114.0 113.955376
209.0 112.0 116.28047
210.0 112.0 116.25361
207.0 112.0 116.27442
208.0 112.0 116.30148
209.0 111.0 117.79418
207.0 111.0 117.78759
208.0 111.0 117.82049
208.0 110.0 119.71086
209.0 109.0 122.40011
207.0 109.0 122.39717
208.0 109.0 122.4594
209.0 109.0 133.41939
207.0 109.0 133.43182
208.0 109.0 133.36772
208.0 110.0 136.11447
209.0 111.0 138.02455
207.0 111.0 138.02975
208.0 111.0 137.9967
209.0 112.0 139.53247
210.0 112.0 139.55957
206.0 112.0 139.56284
207.0 112.0 139.53577
208.0 112.0 139.50868
209.0 114.0 141.87889
207.0 114.0 141.88023
208.0 113.0 140.82205
208.0 114.0 141.85733
209.0 116.0 143.63243
207.0 116.0 143.63435
208.0 115.0 142.81512
208.0 116.0 143.61397
209.0 118.0 144.97092
207.0 118.0 144.97453
208.0 117.0 144.34863
208.0 118.0 144.95557
209.0 120.0 145.99226
210.0 120.0 146.00995
206.0 120.0 146.01471
207.0 120.0 145.99693
208.0 119.0 145.53584
208.0 120.0 145.97916
208.0 121.0 146.42247
209.0 122.0 146.75392
209.0 123.0 147.05138
207.0 122.0 146.75914
207.0 123.0 147.05684
208.0 122.0 146.7422
208.0 123.0 147.0399
209.0 124.0 147.29124
209.0 125.0 147.45409
210.0 125.0 147.47049
207.0 125.0 147.45966
208.0 124.0 147.28029
208.0 125.0 147.44325
209.0 127.0 147.65953
209.0 128.0 147.69325
210.0 127.0 147.67572
207.0 127.0 147.6652
207.0 128.0 147.69904
208.0 127.0 147.64906
208.0 128.0 147.6829
209.0 130.0 147.5811
210.0 130.0 147.5973
206.0 130.0 147.6033
207.0 130.0 147.58716
208.0 129.0 147.66501
208.0 130.0 147.57103
208.0 131.0 147.47704
209.0 132.0 147.27623
209.0 133.0 147.05142
207.0 132.0 147.28276
208.0 132.0 147.26637
208.0 133.0 147.04176
209.0 134.0 146.76625
209.0 135.0 146.40369
210.0 135.0 146.4206
207.0 135.0 146.41109
208.0 134.0 146.75653
208.0 135.0 146.3942
209.0 137.0 145.5155
210.0 137.0 145.53314
206.0 137.0 145.54129
207.0 137.0 145.52368
208.0 137.0 145.50607
208.0 138.0 144.99374
209.0 139.0 144.34181
210.0 139.0 144.36043
207.0 139.0 144.3509
208.0 139.0 144.33232
208.0 140.0 143.65091
209.0 141.0 142.8103
210.0 141.0 142.83023
207.0 141.0 142.82051
208.0 141.0 142.80063
209.0 143.0 140.80206
210.0 143.0 140.82368
207.0 143.0 140.81372
208.0 143.0 140.79227
188.0 146.0 119.67755
209.0 146.0 136.14244
208.0 146.0 136.13681
179.0 147.0 122.38979
186.0 147.0 133.44005
211.0 147.0 122.349464
201.0 147.0 133.44588
202.0 147.0 133.46323
200.0 147.0 133.43292
195.0 147.0 122.35896
196.0 147.0 122.37627
197.0 147.0 122.37088
183.0 111.0 117.802986
180.0 110.0 119.700195
181.0 110.0 119.73744
182.0 128.0 147.69539
182.0 129.0 147.66191
182.0 127.0 147.67192
183.0 127.0 147.6554
183.0 128.0 147.68501
180.0 128.0 147.69601
180.0 129.0 147.66238
181.0 128.0 147.67949
181.0 129.0 147.64586
182.0 111.0 138.04285
183.0 111.0 138.01015
181.0 111.0 138.01659
181.0 112.0 139.55113
182.0 123.0 108.76318
182.0 124.0 108.534584
182.0 125.0 108.348495
183.0 124.0 108.52707
183.0 125.0 108.36489
180.0 123.0 108.76153
180.0 124.0 108.53298
181.0 123.0 108.77813
181.0 124.0 108.54958
214.0 110.0 119.67809
215.0 110.0 119.71534
216.0 110.0 119.72453
217.0 110.0 119.6873
215.0 111.0 138.03201
214.0 112.0 139.53175
215.0 112.0 139.55887
218.0 147.0 133.40369
216.0 111.0 138.02463
216.0 112.0 139.56262
214.0 124.0 108.52376
215.0 123.0 108.76759
215.0 124.0 108.54046
214.0 122.0 109.05895
214.0 123.0 108.764404
216.0 123.0 108.77205
216.0 124.0 108.54502
217.0 124.0 108.528305
181.0 135.0 146.42494
181.0 136.0 145.9767
181.0 137.0 145.52847
182.0 136.0 145.99559
183.0 136.0 146.01447
182.0 135.0 146.41083
183.0 134.0 146.76909
183.0 135.0 146.39212
179.0 136.0 146.01227
180.0 136.0 145.993
182.0 138.0 110.841965
183.0 138.0 110.823296
182.0 139.0 111.45794
183.0 139.0 111.476746
183.0 140.0 112.16321
180.0 138.0 110.841194
181.0 138.0 110.85981
181.0 139.0 111.46157
181.0 133.0 147.03806
181.0 134.0 146.73799
182.0 133.0 147.05568
182.0 134.0 146.75562
182.0 132.0 147.29008
183.0 132.0 147.27266
183.0 133.0 147.03914
180.0 133.0 147.0552
180.0 134.0 146.75464
215.0 141.0 112.97376
216.0 140.0 112.1865
216.0 141.0 112.980576
214.0 139.0 111.47015
214.0 140.0 112.21457
215.0 140.0 112.18666
217.0 140.0 112.16981
215.0 138.0 110.84198
215.0 139.0 111.45687
214.0 137.0 110.30114
214.0 138.0 110.84052
215.0 137.0 110.279915
216.0 138.0 110.8555
216.0 139.0 111.47369
217.0 138.0 110.83402
214.0 136.0 109.8059
215.0 136.0 109.824745
214.0 135.0 109.41576
215.0 135.0 109.39709
216.0 136.0 109.83401
216.0 137.0 110.28346
217.0 136.0 109.81478
218.0 136.0 109.79555
214.0 117.0 144.36032
215.0 116.0 143.64247
215.0 117.0 144.34058
214.0 118.0 144.9706
215.0 118.0 144.98958
184.0 146.0 119.68161
216.0 116.0 143.6375
216.0 117.0 144.3355
217.0 117.0 144.35527
214.0 129.0 147.67384
215.0 128.0 147.68881
215.0 129.0 147.65755
214.0 130.0 147.58128
215.0 130.0 147.59758
216.0 128.0 147.68388
216.0 129.0 147.65257
217.0 129.0 147.66888
214.0 134.0 109.046684
215.0 133.0 108.764114
215.0 134.0 109.064285
214.0 132.0 108.53558
214.0 133.0 108.769325
216.0 133.0 108.77075
216.0 134.0 109.0714
217.0 134.0 109.05367
214.0 117.0 111.45434
215.0 116.0 112.17066
215.0 117.0 111.474075
214.0 116.0 112.18331
216.0 116.0 112.17562
216.0 117.0 111.47901
217.0 117.0 111.45927
211.0 147.0 133.47723
214.0 119.0 145.53064
215.0 119.0 145.51233
214.0 120.0 145.99207
215.0 120.0 146.00983
216.0 118.0 144.98538
216.0 119.0 145.50743
217.0 119.0 145.52574
214.0 115.0 112.98358
215.0 115.0 113.005455
214.0 114.0 113.9374
215.0 114.0 113.914154
216.0 114.0 113.918106
216.0 115.0 113.011
217.0 115.0 112.98913
214.0 109.0 133.41681
214.0 131.0 108.34608
215.0 131.0 108.362915
215.0 132.0 108.5268
214.0 130.0 108.23415
215.0 130.0 108.21743
216.0 131.0 108.368675
216.0 132.0 108.53281
217.0 131.0 108.35178
182.0 109.0 122.3717
183.0 110.0 119.68264
180.0 109.0 122.36565
181.0 109.0 122.41691
181.0 132.0 147.27606
182.0 131.0 147.45663
183.0 131.0 147.47348
182.0 130.0 147.59119
183.0 129.0 147.67435
183.0 130.0 147.57442
179.0 131.0 147.47366
180.0 131.0 147.45676
181.0 130.0 147.60382
181.0 131.0 147.43983
182.0 113.0 140.79573
183.0 113.0 140.82063
182.0 112.0 139.55103
183.0 112.0 139.52403
195.0 126.0 108.211586
179.0 113.0 140.82338
180.0 113.0 140.79846
181.0 113.0 140.77354
182.0 121.0 109.40988
183.0 121.0 109.39266
182.0 122.0 109.04832
183.0 122.0 109.0652
183.0 123.0 108.7678
179.0 121.0 109.390854
180.0 121.0 109.4081
181.0 121.0 109.42534
181.0 122.0 109.05695
214.0 121.0 146.41637
215.0 121.0 146.39903
215.0 122.0 146.76747
214.0 122.0 146.75394
214.0 123.0 147.05144
216.0 121.0 146.39421
216.0 122.0 146.76257
217.0 121.0 146.41154
214.0 113.0 115.001144
215.0 113.0 115.02613
214.0 112.0 116.281494
215.0 112.0 116.254486
216.0 113.0 115.03253
217.0 113.0 115.00756
215.0 109.0 133.42598
216.0 109.0 133.41301
214.0 129.0 108.14118
215.0 128.0 108.12398
215.0 129.0 108.15766
214.0 127.0 108.15296
214.0 128.0 108.12392
216.0 128.0 108.12902
216.0 129.0 108.16287
217.0 129.0 108.14638
214.0 124.0 147.29134
215.0 123.0 147.0459
215.0 124.0 147.27463
196.0 118.0 110.831535
214.0 125.0 147.4542
215.0 125.0 147.47066
216.0 123.0 147.0411
216.0 124.0 147.26978
217.0 124.0 147.28648
201.0 119.0 110.274605
202.0 119.0 110.27434
215.0 111.0 117.780304
214.0 111.0 117.79396
216.0 111.0 117.7878
216.0 112.0 116.25372
214.0 110.0 136.1351
215.0 110.0 136.09775
214.0 111.0 138.02245
216.0 110.0 136.08835
217.0 110.0 136.12569
214.0 126.0 108.219925
215.0 126.0 108.23636
215.0 127.0 108.14118
214.0 125.0 108.36049
215.0 125.0 108.34391
217.0 139.0 111.460594
218.0 139.0 111.48297
218.0 140.0 112.18052
216.0 126.0 108.2411
216.0 127.0 108.14606
217.0 126.0 108.22465
214.0 126.0 147.59421
215.0 126.0 147.57784
215.0 127.0 147.67491
214.0 127.0 147.6599
214.0 128.0 147.69318
216.0 126.0 147.57298
216.0 127.0 147.67001
217.0 126.0 147.58936
214.0 138.0 144.98497
215.0 138.0 144.96622
214.0 139.0 144.34306
215.0 139.0 144.36195
216.0 138.0 144.96014
216.0 139.0 144.35857
217.0 138.0 144.97885
182.0 140.0 112.182076
182.0 141.0 112.98839
183.0 141.0 113.00833
180.0 140.0 112.1811
181.0 140.0 112.20099
181.0 141.0 112.99003
214.0 140.0 143.6459
215.0 140.0 143.62578
217.0 141.0 112.98384
218.0 141.0 113.01459
218.0 142.0 113.92276
214.0 141.0 142.81175
215.0 141.0 142.8318
216.0 140.0 143.61934
216.0 141.0 142.83047
217.0 140.0 143.63933
182.0 142.0 113.93559
183.0 142.0 113.91398
182.0 143.0 114.99785
183.0 143.0 115.01873
180.0 142.0 113.93406
181.0 142.0 113.95526
214.0 142.0 141.89368
215.0 142.0 141.87192
214.0 143.0 140.80174
215.0 143.0 140.82272
216.0 142.0 141.86546
217.0 142.0 141.88678
213.0 145.0 117.81219
214.0 145.0 117.784134
212.0 145.0 117.788864
182.0 145.0 138.04845
183.0 145.0 138.0203
196.0 109.0 122.378365
184.0 145.0 138.01001
185.0 145.0 138.03368
182.0 144.0 116.267136
183.0 144.0 116.2736
180.0 144.0 116.26365
181.0 143.0 114.98641
181.0 144.0 116.28484
215.0 144.0 139.54024
214.0 144.0 139.54637
216.0 144.0 139.53607
217.0 144.0 139.55736
214.0 142.0 113.96607
215.0 142.0 113.949234
214.0 141.0 112.974785
216.0 142.0 113.939156
217.0 142.0 113.9262
182.0 142.0 141.85915
183.0 142.0 141.84225
181.0 142.0 141.87202
179.0 142.0 141.89697
180.0 142.0 141.88342
214.0 144.0 116.2724
215.0 144.0 116.256516
214.0 143.0 114.99457
215.0 143.0 115.00961
216.0 143.0 115.02009
216.0 144.0 116.24773
182.0 144.0 139.55223
183.0 144.0 139.5363
181.0 143.0 140.7945
182.0 143.0 140.8096
183.0 143.0 140.82469
181.0 144.0 139.5626
217.0 116.0 112.177475
218.0 115.0 112.99565
218.0 116.0 112.19818
217.0 143.0 115.02027
218.0 143.0 115.03917
179.0 124.0 108.52819
179.0 125.0 108.366516
180.0 125.0 108.35011
182.0 146.0 136.13147
183.0 146.0 136.09811
214.0 146.0 119.70457
215.0 146.0 119.67134
182.0 146.0 119.69894
183.0 146.0 119.67362
217.0 146.0 136.14444
213.0 146.0 136.13062
214.0 146.0 136.13289
215.0 146.0 136.10748
216.0 146.0 136.1369
218.0 146.0 136.0836
179.0 122.0 109.06666
179.0 123.0 108.76986
180.0 122.0 109.04979
217.0 114.0 113.93102
218.0 113.0 114.98689
218.0 114.0 113.954315
195.0 115.0 142.83017
196.0 115.0 142.83003
201.0 114.0 141.89215
199.0 147.0 122.37239
198.0 147.0 133.41428
217.0 137.0 110.29146
218.0 137.0 110.310776
218.0 138.0 110.83248
196.0 143.0 114.99667
182.0 145.0 117.79052
183.0 145.0 117.76882
180.0 145.0 117.78873
181.0 145.0 117.80128
214.0 145.0 138.03885
215.0 145.0 138.01706
216.0 145.0 138.0168
217.0 145.0 138.02928
217.0 144.0 116.24749
218.0 144.0 116.26164
218.0 145.0 117.79791
215.0 145.0 117.764015
216.0 135.0 109.388016
217.0 135.0 109.40584
218.0 134.0 109.05565
218.0 135.0 109.42366
216.0 145.0 117.77502
217.0 145.0 117.78577
179.0 144.0 116.25145
179.0 145.0 117.78773
196.0 125.0 108.34336
196.0 126.0 108.211975
197.0 126.0 108.21231
199.0 119.0 110.275185
200.0 119.0 110.27489
217.0 132.0 108.5312
217.0 133.0 108.75944
218.0 132.0 108.54816
218.0 133.0 108.7764
179.0 143.0 115.03053
180.0 143.0 115.006325
195.0 129.0 147.67426
179.0 141.0 113.00872
179.0 142.0 113.91689
180.0 141.0 112.98694
179.0 120.0 109.82925
180.0 120.0 109.81157
181.0 120.0 109.79389
179.0 117.0 111.45772
179.0 118.0 110.85152
180.0 118.0 110.8326
217.0 112.0 116.27517
218.0 112.0 116.30225
179.0 115.0 112.98889
179.0 116.0 112.19142
180.0 116.0 112.170715
179.0 114.0 113.94671
180.0 114.0 113.92342
217.0 111.0 117.78445
218.0 111.0 117.817444
179.0 112.0 116.29341
180.0 112.0 116.266335
179.0 111.0 117.80669
180.0 111.0 117.77373
216.0 130.0 108.21165
217.0 130.0 108.22815
218.0 129.0 108.14818
218.0 130.0 108.244644
218.0 131.0 108.34111
217.0 127.0 108.149025
217.0 128.0 108.11696
218.0 127.0 108.165375
218.0 128.0 108.13331
216.0 125.0 108.3389
217.0 125.0 108.35538
218.0 124.0 108.53354
218.0 125.0 108.371864
218.0 126.0 108.2102
189.0 147.0 133.4749
184.0 147.0 133.39775
185.0 147.0 133.44096
212.0 147.0 122.38824
213.0 147.0 122.43129
217.0 122.0 109.05524
217.0 123.0 108.75844
218.0 122.0 109.07216
218.0 123.0 108.77537
200.0 114.0 141.89178
197.0 115.0 142.82977
179.0 139.0 111.47684
179.0 140.0 112.174385
180.0 139.0 111.45698
179.0 137.0 110.304886
179.0 138.0 110.826584
180.0 137.0 110.28645
196.0 129.0 147.67397
196.0 130.0 147.6013
197.0 129.0 147.67365
216.0 120.0 109.7996
217.0 120.0 109.81731
218.0 119.0 110.27768
218.0 120.0 109.835014
218.0 121.0 109.39234
179.0 134.0 109.05001
179.0 135.0 109.41802
180.0 135.0 109.400604
218.0 144.0 139.55414
218.0 145.0 138.01787
179.0 132.0 108.54272
179.0 133.0 108.77096
180.0 132.0 108.52597
217.0 118.0 110.83877
218.0 117.0 111.4639
218.0 118.0 110.85769
179.0 129.0 108.14285
179.0 130.0 108.23932
180.0 130.0 108.22296
216.0 143.0 140.8244
217.0 143.0 140.80005
218.0 143.0 140.7757
217.0 141.0 142.8202
218.0 141.0 142.7983
218.0 142.0 141.89012
217.0 139.0 144.35074
218.0 139.0 144.3308
218.0 140.0 143.63324
216.0 137.0 145.5402
217.0 137.0 145.52171
218.0 137.0 145.50322
218.0 138.0 144.98152
179.0 127.0 108.16008
179.0 128.0 108.12801
180.0 127.0 108.14384
198.0 147.0 122.36942
217.0 135.0 146.40787
218.0 134.0 146.7584
218.0 135.0 146.3904
199.0 147.0 133.46217
217.0 132.0 147.28273
217.0 133.0 147.05449
218.0 132.0 147.26593
218.0 133.0 147.03769
216.0 130.0 147.60234
217.0 130.0 147.58589
218.0 129.0 147.66592
218.0 130.0 147.56946
218.0 131.0 147.47299
182.0 147.0 133.43602
183.0 147.0 133.38435
179.0 147.0 133.41945
217.0 127.0 147.66508
217.0 128.0 147.69716
218.0 127.0 147.64873
218.0 128.0 147.6808
214.0 147.0 122.41247
217.0 147.0 122.359276
218.0 147.0 122.41193
216.0 125.0 147.47531
217.0 125.0 147.45879
218.0 124.0 147.28056
218.0 125.0 147.44225
218.0 126.0 147.60391
179.0 146.0 136.09042
180.0 146.0 136.12389
181.0 146.0 136.15735
216.0 146.0 119.66802
217.0 146.0 119.701324
218.0 146.0 119.73463
217.0 122.0 146.75896
217.0 123.0 147.05574
218.0 122.0 146.74196
218.0 123.0 147.03874
180.0 145.0 138.03195
181.0 145.0 138.0428
216.0 120.0 146.01466
217.0 120.0 145.99689
218.0 119.0 145.53642
218.0 120.0 145.9791
218.0 121.0 146.42177
179.0 144.0 139.5571
179.0 145.0 138.02083
180.0 144.0 139.57129
179.0 143.0 140.78114
180.0 143.0 140.8001
217.0 118.0 144.97539
218.0 117.0 144.35022
218.0 118.0 144.95642
179.0 141.0 142.8096
179.0 139.0 144.33847
179.0 140.0 143.64091
217.0 116.0 143.63663
218.0 115.0 142.81844
218.0 116.0 143.61592
179.0 137.0 145.50966
179.0 138.0 144.98796
180.0 137.0 145.52902
179.0 134.0 146.76428
179.0 135.0 146.39627
180.0 135.0 146.41412
217.0 114.0 141.88303
218.0 113.0 140.82721
218.0 114.0 141.85979
179.0 132.0 147.27148
179.0 133.0 147.04324
180.0 132.0 147.28845
179.0 129.0 147.67133
179.0 130.0 147.57486
180.0 130.0 147.59135
217.0 112.0 139.53888
218.0 112.0 139.51184
179.0 127.0 147.65408
179.0 128.0 147.68616
180.0 127.0 147.67046
179.0 124.0 147.28596
179.0 125.0 147.44765
180.0 125.0 147.46419
217.0 111.0 138.02965
218.0 111.0 137.99666
179.0 122.0 146.74751
179.0 123.0 147.0443
180.0 122.0 146.76451
179.0 120.0 145.98491
180.0 120.0 146.00269
181.0 120.0 146.02046
218.0 110.0 136.11206
179.0 117.0 144.35641
179.0 118.0 144.96262
180.0 118.0 144.98158
179.0 115.0 142.8252
179.0 116.0 143.62268
180.0 116.0 143.64337
217.0 109.0 133.43092
218.0 109.0 133.3671
179.0 114.0 141.86736
180.0 114.0 141.89058
179.0 112.0 139.52065
180.0 112.0 139.54762
179.0 111.0 138.00739
180.0 111.0 138.04027
179.0 110.0 136.12608
179.0 109.0 133.38785
217.0 109.0 122.38336
218.0 109.0 122.44703
179.0 109.0 122.4263
179.0 110.0 119.68803
218.0 110.0 119.702065
180.0 147.0 122.3646
181.0 147.0 122.37879
182.0 147.0 122.35562
217.0 147.0 133.46191
215.0 147.0 133.45053
216.0 147.0 133.42755
179.0 146.0 119.710106
181.0 146.0 119.6899
180.0 146.0 119.668846
172.0 137.0 167.73769
177.0 117.0 162.05742
178.0 117.0 161.88669
178.0 118.0 162.19327
172.0 138.0 166.96016
172.0 119.0 167.74019
172.0 118.0 166.96143
176.0 136.0 163.43678
177.0 136.0 163.06755
176.0 119.0 163.14223
175.0 118.0 163.27563
175.0 119.0 163.79378
176.0 120.0 163.43767
177.0 120.0 163.0679
176.0 137.0 163.14207
175.0 137.0 163.79402
175.0 138.0 163.27646
173.0 135.0 166.87953
173.0 127.0 168.62032
173.0 128.0 168.63095
173.0 121.0 166.87555
177.0 139.0 162.05742
178.0 138.0 162.19327
178.0 139.0 161.88669
172.0 117.0 166.13628
172.0 139.0 166.13594
173.0 125.0 168.35257
173.0 126.0 168.52531
177.0 137.0 162.78276
178.0 136.0 162.75992
178.0 137.0 162.52434
173.0 131.0 168.24878
174.0 131.0 166.45663
177.0 119.0 162.784
178.0 119.0 162.52477
178.0 120.0 162.76036
172.0 120.0 169.07399
175.0 125.0 165.45096
176.0 125.0 164.49745
176.0 126.0 164.60237
177.0 125.0 164.06648
177.0 126.0 164.17142
175.0 131.0 165.4339
176.0 130.0 164.61795
176.0 131.0 164.49408
172.0 136.0 169.08472
176.0 132.0 164.37776
177.0 131.0 164.05951
177.0 135.0 163.38033
178.0 135.0 163.03822
174.0 128.0 166.70023
174.0 129.0 166.70514
175.0 128.0 165.60483
174.0 126.0 166.54347
174.0 127.0 166.65933
175.0 126.0 165.56323
174.0 130.0 166.58315
175.0 130.0 165.55043
175.0 117.0 162.85815
176.0 117.0 162.34059
176.0 118.0 162.72751
177.0 118.0 162.41306
175.0 139.0 162.85815
176.0 138.0 162.7279
176.0 139.0 162.34062
177.0 138.0 162.41292
173.0 139.0 164.50424
174.0 137.0 164.47185
174.0 138.0 163.98296
173.0 117.0 164.50424
174.0 118.0 163.98238
174.0 119.0 164.47064
173.0 133.0 167.76384
173.0 123.0 167.77608
174.0 124.0 166.25276
174.0 125.0 166.41263
175.0 124.0 165.3071
174.0 123.0 166.05754
175.0 123.0 165.02895
176.0 134.0 164.06114
176.0 135.0 163.72993
174.0 132.0 166.21774
175.0 132.0 165.296
174.0 133.0 166.0552
175.0 133.0 165.0452
175.0 134.0 164.68336
177.0 134.0 163.52614
178.0 134.0 163.19801
176.0 121.0 163.7299
177.0 121.0 163.38484
178.0 121.0 163.0398
174.0 136.0 164.95424
175.0 135.0 164.41814
175.0 136.0 164.09439
174.0 135.0 165.40602
174.0 120.0 164.95192
175.0 121.0 164.42168
175.0 120.0 164.09412
174.0 121.0 165.40334
176.0 122.0 164.05688
177.0 122.0 163.52977
178.0 122.0 163.19928
175.0 127.0 165.6334
176.0 127.0 164.6915
176.0 128.0 164.76949
177.0 128.0 164.28864
178.0 128.0 163.80779
177.0 133.0 163.75412
178.0 133.0 163.3686
176.0 133.0 164.22232
177.0 123.0 163.75423
178.0 123.0 163.36848
174.0 122.0 165.7397
175.0 122.0 164.69257
176.0 123.0 164.22559
175.0 129.0 165.59674
176.0 129.0 164.6991
177.0 129.0 164.2087
174.0 134.0 165.73358
177.0 130.0 164.1687
178.0 129.0 163.75597
178.0 130.0 163.7229
173.0 132.0 168.09503
173.0 118.0 165.07793
173.0 120.0 166.19545
173.0 119.0 165.76825
173.0 138.0 165.07986
173.0 136.0 166.21564
173.0 137.0 165.76346
173.0 134.0 167.38182
177.0 132.0 163.95544
178.0 131.0 163.63379
178.0 132.0 163.5343
172.0 135.0 170.51701
173.0 122.0 167.37166
172.0 121.0 170.51604
176.0 124.0 164.39268
177.0 124.0 163.9652
178.0 124.0 163.53769
178.0 125.0 163.63718
173.0 130.0 168.5577
173.0 129.0 168.57043
177.0 127.0 164.21262
178.0 126.0 163.72668
178.0 127.0 163.75975
173.0 124.0 168.11722
178.0 115.0 94.73864
174.0 107.0 156.68773
175.0 107.0 156.68999
177.0 105.0 155.12363
177.0 106.0 155.94177
174.0 107.0 99.12637
175.0 107.0 99.124115
177.0 105.0 100.69048
177.0 106.0 99.87234
175.0 108.0 98.40942
176.0 107.0 99.12455
176.0 108.0 98.413315
177.0 107.0 99.117874
177.0 108.0 98.411064
175.0 108.0 157.4047
176.0 107.0 156.68954
176.0 108.0 157.40079
177.0 107.0 156.69623
177.0 108.0 157.40305
177.0 109.0 158.05168
176.0 109.0 158.04697
178.0 108.0 157.39763
178.0 109.0 158.05077
177.0 109.0 97.76243
176.0 109.0 97.767136
178.0 108.0 98.41648
178.0 109.0 97.763336
178.0 106.0 155.93468
178.0 107.0 156.69402
178.0 106.0 99.87943
178.0 107.0 99.12009
174.0 103.0 102.511665
175.0 103.0 102.51983
178.0 104.0 101.56805
178.0 105.0 100.6904
176.0 103.0 102.51296
178.0 104.0 154.24606
178.0 105.0 155.1237
174.0 104.0 154.25284
173.0 104.0 101.57367
173.0 105.0 155.12714
174.0 105.0 155.1355
174.0 103.0 153.30244
175.0 103.0 153.29427
170.0 99.0 148.6205
171.0 99.0 148.61267
170.0 99.0 107.19362
171.0 99.0 107.20146
178.0 115.0 161.07547
176.0 103.0 153.30113
174.0 99.0 148.62224
175.0 99.0 148.60637
176.0 99.0 148.59592
177.0 99.0 148.60512
174.0 99.0 107.19188
175.0 99.0 107.20775
176.0 99.0 107.218185
177.0 99.0 107.208984
176.0 100.0 149.95078
177.0 100.0 149.95775
176.0 100.0 105.863335
177.0 100.0 105.85636
172.0 102.0 152.27184
173.0 102.0 152.27023
170.0 102.0 152.26833
171.0 102.0 152.26814
172.0 102.0 103.542274
173.0 102.0 103.543884
170.0 102.0 103.54577
171.0 102.0 103.54596
178.0 99.0 107.20687
178.0 100.0 105.85773
178.0 99.0 148.60722
178.0 100.0 149.95638
172.0 101.0 104.65577
171.0 101.0 104.64871
172.0 101.0 151.15834
171.0 101.0 151.16539
174.0 102.0 103.546524
175.0 102.0 103.537186
173.0 104.0 154.24043
174.0 102.0 152.2676
175.0 102.0 152.27692
175.0 97.0 110.33699
176.0 102.0 103.53516
177.0 102.0 103.52871
177.0 101.0 104.64523
178.0 101.0 104.662544
178.0 114.0 95.13443
178.0 112.0 96.06235
178.0 113.0 95.59996
177.0 112.0 96.057495
178.0 111.0 96.60614
176.0 110.0 97.14369
177.0 110.0 97.15135
177.0 111.0 96.6062
178.0 110.0 97.15901
176.0 102.0 152.27895
177.0 102.0 152.2854
177.0 101.0 151.16887
178.0 101.0 151.15157
175.0 101.0 151.16534
176.0 101.0 151.17227
178.0 103.0 153.2931
173.0 101.0 151.1616
178.0 103.0 102.520996
174.0 101.0 151.16759
175.0 100.0 149.95256
175.0 101.0 104.64876
176.0 101.0 104.64184
173.0 101.0 104.652504
174.0 101.0 104.64652
175.0 100.0 105.86156
173.0 97.0 110.34986
174.0 97.0 110.342865
171.0 97.0 110.3245
172.0 97.0 110.33792
175.0 97.0 145.47713
171.0 103.0 102.50275
172.0 103.0 102.511
172.0 104.0 101.5795
173.0 103.0 102.51926
173.0 97.0 145.46425
174.0 97.0 145.47125
171.0 103.0 153.31136
172.0 103.0 153.3031
172.0 104.0 154.2346
173.0 103.0 153.29485
178.0 114.0 160.67967
178.0 112.0 159.75174
178.0 113.0 160.21414
177.0 112.0 159.75659
178.0 111.0 159.20795
176.0 110.0 158.67043
177.0 110.0 158.66275
177.0 111.0 159.20789
178.0 110.0 158.65509
171.0 97.0 145.48969
172.0 97.0 145.47627
177.0 103.0 102.50798
178.0 102.0 103.53405
174.0 95.0 141.35353
173.0 95.0 141.34543
177.0 103.0 153.30612
178.0 102.0 152.28004
169.0 100.0 149.95676
170.0 100.0 149.95108
171.0 100.0 149.94798
172.0 100.0 149.95454
169.0 101.0 151.1554
170.0 101.0 151.16508
169.0 100.0 105.85735
170.0 100.0 105.86304
171.0 100.0 105.866135
172.0 100.0 105.85956
169.0 101.0 104.6587
170.0 101.0 104.64902
174.0 95.0 114.45999
177.0 98.0 147.12918
178.0 98.0 147.11884
177.0 98.0 108.68491
178.0 98.0 108.69527
173.0 95.0 114.468605
167.0 99.0 107.19441
168.0 99.0 107.19837
168.0 100.0 105.862686
169.0 99.0 107.20233
167.0 99.0 148.6197
168.0 99.0 148.61577
168.0 100.0 149.95142
169.0 99.0 148.61183
174.0 96.0 112.24847
168.0 95.0 114.48916
169.0 95.0 114.47739
170.0 95.0 114.46989
168.0 95.0 141.32498
169.0 95.0 141.33665
170.0 95.0 141.34409
174.0 96.0 143.56549
169.0 98.0 108.67036
170.0 98.0 108.66868
168.0 98.0 108.6729
169.0 98.0 147.1438
170.0 98.0 147.1455
168.0 97.0 145.49472
169.0 97.0 145.49295
170.0 97.0 145.4912
166.0 98.0 108.68037
167.0 98.0 108.67663
168.0 97.0 110.31956
169.0 97.0 110.321335
170.0 97.0 110.323105
166.0 98.0 147.13374
167.0 98.0 147.13751
166.0 97.0 110.360855
167.0 97.0 110.335075
168.0 98.0 147.14127
166.0 97.0 145.45332
167.0 97.0 145.479
176.0 104.0 101.56487
173.0 100.0 149.94852
174.0 100.0 149.95677
177.0 104.0 101.56794
173.0 100.0 105.86558
174.0 100.0 105.857315
176.0 104.0 154.24922
176.0 95.0 141.32916
177.0 95.0 141.34912
178.0 95.0 141.36906
175.0 95.0 141.34642
177.0 104.0 154.24617
176.0 95.0 114.4851
177.0 95.0 114.465096
178.0 95.0 114.44509
175.0 95.0 114.468
178.0 94.0 117.2447
163.0 96.0 112.24251
164.0 96.0 112.24482
176.0 94.0 117.24399
177.0 94.0 117.21995
178.0 94.0 138.5694
163.0 96.0 143.57161
164.0 96.0 143.56949
176.0 94.0 138.5709
177.0 94.0 138.59479
172.0 99.0 148.61626
173.0 99.0 148.62561
172.0 99.0 107.19785
173.0 99.0 107.18849
163.0 94.0 117.216324
164.0 94.0 117.21305
165.0 94.0 117.20978
165.0 97.0 145.45856
165.0 94.0 138.60565
163.0 94.0 138.59897
164.0 94.0 138.60242
165.0 97.0 110.35567
166.0 94.0 117.215866
167.0 94.0 117.2379
168.0 94.0 117.259926
169.0 94.0 117.25952
170.0 94.0 117.22528
166.0 94.0 138.6
167.0 94.0 138.5784
168.0 94.0 138.5568
169.0 94.0 138.5552
170.0 94.0 138.58893
167.0 96.0 112.24079
168.0 96.0 112.22748
177.0 96.0 143.58604
178.0 96.0 143.59969
166.0 96.0 112.23607
162.0 95.0 141.35289
163.0 95.0 141.37296
162.0 95.0 114.461235
163.0 95.0 114.44124
161.0 93.0 134.64012
162.0 93.0 134.61322
161.0 93.0 121.177986
162.0 93.0 121.20731
176.0 93.0 134.63954
177.0 93.0 134.62206
178.0 93.0 134.60455
169.0 96.0 112.222725
176.0 93.0 121.1766
177.0 93.0 121.192955
178.0 93.0 121.209305
167.0 96.0 143.57323
168.0 96.0 143.58644
166.0 96.0 143.57816
175.0 96.0 143.58018
176.0 96.0 143.57512
174.0 98.0 108.6673
175.0 98.0 108.67529
173.0 98.0 147.14401
176.0 98.0 108.68058
174.0 98.0 147.1468
175.0 98.0 147.13881
173.0 98.0 108.670074
176.0 98.0 147.13351
173.0 94.0 138.59344
174.0 94.0 138.58717
175.0 94.0 138.58092
172.0 94.0 138.59755
177.0 96.0 112.22811
178.0 96.0 112.21445
175.0 96.0 112.23396
176.0 96.0 112.23908
173.0 94.0 117.221954
174.0 94.0 117.227936
175.0 94.0 117.23391
171.0 94.0 117.2089
172.0 94.0 117.21857
168.0 93.0 134.63083
169.0 93.0 134.6136
168.0 93.0 121.18937
169.0 96.0 143.59116
169.0 93.0 121.20612
176.0 97.0 110.33377
177.0 97.0 110.33244
178.0 97.0 110.3366
176.0 97.0 145.48033
177.0 97.0 145.48169
178.0 97.0 145.47752
166.0 95.0 114.457504
171.0 95.0 114.46773
172.0 95.0 114.4658
171.0 95.0 141.3462
172.0 95.0 141.34822
167.0 95.0 114.47374
166.0 95.0 141.35701
167.0 95.0 141.34094
173.0 93.0 134.63628
174.0 93.0 134.6411
175.0 93.0 134.6459
173.0 93.0 121.17221
174.0 93.0 121.16841
175.0 93.0 121.16462
163.0 93.0 134.61317
164.0 93.0 134.63284
163.0 93.0 121.20253
164.0 93.0 121.181656
171.0 98.0 147.14626
172.0 98.0 147.13481
171.0 98.0 108.66789
172.0 98.0 108.679344
172.0 96.0 143.58905
173.0 96.0 143.56317
171.0 96.0 143.60104
172.0 96.0 112.22506
173.0 96.0 112.25105
171.0 96.0 112.2136
165.0 96.0 143.57564
165.0 96.0 112.23859
172.0 93.0 121.17004
172.0 93.0 134.63448
171.0 94.0 138.60283
161.0 94.0 117.210464
161.0 94.0 138.60326
164.0 95.0 114.4405
165.0 95.0 114.4586
164.0 95.0 141.3742
165.0 95.0 141.35643
174.0 106.0 99.8718
175.0 106.0 99.873604
175.0 104.0 101.563515
175.0 105.0 100.67965
176.0 105.0 100.69187
176.0 106.0 99.879776
174.0 104.0 101.56126
174.0 106.0 155.9423
175.0 106.0 155.94049
175.0 104.0 154.25058
175.0 105.0 155.13446
176.0 105.0 155.12224
176.0 106.0 155.93433
173.0 105.0 100.68697
174.0 105.0 100.67861
170.0 96.0 143.6006
170.0 96.0 112.21301
165.0 93.0 134.64734
166.0 93.0 134.63802
167.0 93.0 134.6287
165.0 93.0 121.17616
166.0 93.0 121.18598
167.0 93.0 121.19581
162.0 94.0 138.60324
162.0 94.0 117.211586
159.0 93.0 134.60123
160.0 93.0 134.63106
159.0 93.0 121.21398
160.0 93.0 121.185974
170.0 93.0 134.60059
171.0 93.0 134.62291
170.0 93.0 121.21531
171.0 93.0 121.19232
78.0 141.0 161.07547
81.0 149.0 156.68999
82.0 149.0 156.68773
79.0 150.0 155.94176
79.0 151.0 155.12361
81.0 149.0 99.12412
82.0 149.0 99.12637
79.0 150.0 99.87234
79.0 151.0 100.69048
80.0 148.0 98.41332
80.0 149.0 99.12455
81.0 148.0 98.409424
79.0 148.0 98.411064
79.0 149.0 99.11788
80.0 148.0 157.40079
80.0 149.0 156.68954
81.0 148.0 157.40468
79.0 148.0 157.40303
79.0 149.0 156.69621
79.0 147.0 158.05167
80.0 147.0 158.04697
78.0 147.0 158.05077
78.0 148.0 157.39761
79.0 147.0 97.762436
80.0 147.0 97.767136
78.0 147.0 97.763336
78.0 148.0 98.41648
78.0 149.0 156.69402
78.0 150.0 155.93466
78.0 149.0 99.12009
78.0 150.0 99.87944
81.0 153.0 102.51984
82.0 153.0 102.511665
78.0 151.0 100.6904
78.0 152.0 101.568054
80.0 153.0 102.51297
78.0 151.0 155.1237
78.0 152.0 154.24605
82.0 152.0 154.25284
83.0 152.0 101.57368
82.0 151.0 155.13548
83.0 151.0 155.12712
81.0 153.0 153.29427
82.0 153.0 153.30243
85.0 157.0 148.61266
86.0 157.0 148.6205
85.0 157.0 107.20147
86.0 157.0 107.193634
78.0 141.0 94.73864
80.0 153.0 153.30113
81.0 157.0 148.60637
82.0 157.0 148.62224
79.0 157.0 148.6051
80.0 157.0 148.59592
81.0 157.0 107.207756
82.0 157.0 107.19189
79.0 157.0 107.20899
80.0 157.0 107.21819
79.0 156.0 149.95773
80.0 156.0 149.95076
79.0 156.0 105.85637
80.0 156.0 105.86334
84.0 154.0 152.27182
83.0 154.0 152.27022
85.0 154.0 152.26813
86.0 154.0 152.26833
84.0 154.0 103.54228
83.0 154.0 103.54389
85.0 154.0 103.54597
86.0 154.0 103.54577
78.0 156.0 105.857735
78.0 157.0 107.20688
78.0 156.0 149.95638
78.0 157.0 148.60722
84.0 155.0 104.65578
85.0 155.0 104.64872
84.0 155.0 151.15833
85.0 155.0 151.16539
81.0 154.0 103.53719
82.0 154.0 103.54653
83.0 152.0 154.24043
81.0 154.0 152.27692
82.0 154.0 152.26758
81.0 159.0 110.337
79.0 154.0 103.52871
80.0 154.0 103.535164
78.0 155.0 104.66255
79.0 155.0 104.64524
78.0 142.0 160.67967
78.0 143.0 160.21414
78.0 144.0 159.75174
78.0 145.0 159.20795
79.0 144.0 159.75659
78.0 146.0 158.65509
79.0 145.0 159.20789
79.0 146.0 158.66275
80.0 146.0 158.67043
79.0 154.0 152.28539
80.0 154.0 152.27893
78.0 155.0 151.15155
79.0 155.0 151.16887
80.0 155.0 151.17226
81.0 155.0 151.16533
78.0 153.0 153.2931
83.0 155.0 151.16159
78.0 153.0 102.520996
81.0 156.0 149.95256
82.0 155.0 151.16757
80.0 155.0 104.641846
81.0 155.0 104.64877
83.0 155.0 104.65251
81.0 156.0 105.861565
82.0 155.0 104.64654
82.0 159.0 110.34287
83.0 159.0 110.34987
84.0 159.0 110.33794
85.0 159.0 110.32451
81.0 159.0 145.47711
83.0 153.0 102.519264
84.0 152.0 101.579506
84.0 153.0 102.51101
85.0 153.0 102.502754
82.0 159.0 145.47125
83.0 159.0 145.46423
83.0 153.0 153.29485
84.0 152.0 154.2346
84.0 153.0 153.3031
85.0 153.0 153.31136
78.0 142.0 95.13444
78.0 143.0 95.59996
78.0 144.0 96.062355
78.0 145.0 96.60615
79.0 144.0 96.057495
78.0 146.0 97.15901
79.0 145.0 96.60621
79.0 146.0 97.15135
80.0 146.0 97.14369
84.0 159.0 145.47626
85.0 159.0 145.48967
78.0 154.0 103.53406
79.0 153.0 102.50799
82.0 161.0 141.35352
83.0 161.0 141.34541
78.0 154.0 152.28004
79.0 153.0 153.3061
86.0 156.0 149.95107
87.0 156.0 149.95676
84.0 156.0 149.95454
85.0 156.0 149.94797
86.0 155.0 151.16507
87.0 155.0 151.15538
86.0 156.0 105.863045
87.0 156.0 105.85736
84.0 156.0 105.859566
85.0 156.0 105.86614
86.0 155.0 104.649025
87.0 155.0 104.65871
82.0 161.0 114.460014
78.0 158.0 147.11884
79.0 158.0 147.12917
78.0 158.0 108.695274
79.0 158.0 108.68492
83.0 161.0 114.46862
87.0 157.0 107.20234
88.0 156.0 105.86269
88.0 157.0 107.19838
89.0 157.0 107.19442
87.0 157.0 148.61182
88.0 156.0 149.95142
88.0 157.0 148.61575
89.0 157.0 148.61969
82.0 160.0 112.24848
87.0 161.0 114.4774
88.0 161.0 114.489174
86.0 161.0 114.469894
87.0 161.0 141.33664
88.0 161.0 141.32497
86.0 161.0 141.34407
82.0 160.0 143.56548
86.0 158.0 108.668686
87.0 158.0 108.67037
88.0 158.0 108.672905
86.0 158.0 147.14548
87.0 158.0 147.1438
86.0 159.0 145.4912
87.0 159.0 145.49295
88.0 159.0 145.4947
89.0 158.0 108.676636
90.0 158.0 108.680374
86.0 159.0 110.32311
87.0 159.0 110.32134
88.0 159.0 110.31957
89.0 158.0 147.1375
90.0 158.0 147.13374
89.0 159.0 110.33508
90.0 159.0 110.36086
88.0 158.0 147.14127
89.0 159.0 145.47899
90.0 159.0 145.45331
80.0 152.0 101.56488
82.0 156.0 149.95677
83.0 156.0 149.94852
79.0 152.0 101.56794
82.0 156.0 105.85732
83.0 156.0 105.865585
80.0 152.0 154.24922
78.0 161.0 141.36906
79.0 161.0 141.3491
80.0 161.0 141.32915
81.0 161.0 141.3464
79.0 152.0 154.24615
78.0 161.0 114.4451
79.0 161.0 114.46511
80.0 161.0 114.485115
81.0 161.0 114.468025
78.0 162.0 117.24473
92.0 160.0 112.24483
93.0 160.0 112.24252
79.0 162.0 117.21997
80.0 162.0 117.24401
78.0 162.0 138.56937
92.0 160.0 143.56947
93.0 160.0 143.5716
79.0 162.0 138.59476
80.0 162.0 138.57088
83.0 157.0 148.6256
84.0 157.0 148.61624
83.0 157.0 107.1885
84.0 157.0 107.19786
91.0 162.0 117.2098
92.0 162.0 117.213066
93.0 162.0 117.21634
91.0 159.0 145.45854
91.0 162.0 138.60562
92.0 162.0 138.60239
93.0 162.0 138.59895
91.0 159.0 110.355675
88.0 162.0 117.25994
89.0 162.0 117.237915
90.0 162.0 117.21589
86.0 162.0 117.2253
87.0 162.0 117.25954
88.0 162.0 138.55676
89.0 162.0 138.57837
90.0 162.0 138.59998
86.0 162.0 138.58891
87.0 162.0 138.55519
88.0 160.0 112.227486
89.0 160.0 112.24081
78.0 160.0 143.59967
79.0 160.0 143.58603
90.0 160.0 112.23608
93.0 161.0 141.37294
94.0 161.0 141.35287
93.0 161.0 114.441246
94.0 161.0 114.46125
94.0 163.0 134.61319
95.0 163.0 134.64008
