ply
format ascii 1.0
element vertex 2283
property float x
property float y
property float z
end_header
154.23299 164.0 184.0
152.8184 165.0 185.0
154.23268 164.0 185.0
171.82512 136.0 54.0
101.76701 92.0 184.0
103.18154 91.0 185.0
101.76734 92.0 185.0
152.81381 91.0 114.0
152.81166 91.0 115.0
152.80952 91.0 116.0
159.9917 159.0 178.0
159.9904 159.0 179.0
159.99762 159.0 180.0
96.00837 97.0 178.0
96.00971 97.0 179.0
96.00248 97.0 180.0
96.00766 159.0 178.0
96.010826 159.0 179.0
96.00362 159.0 180.0
159.9924 97.0 178.0
159.98929 97.0 179.0
159.99649 97.0 180.0
103.199425 165.0 149.0
103.19004 165.0 147.0
103.19103 165.0 148.0
103.189125 165.0 151.0
103.187996 165.0 150.0
152.80064 91.0 149.0
152.80992 91.0 147.0
152.80894 91.0 148.0
152.811 91.0 151.0
152.81172 91.0 150.0
172.00023 121.0 56.0
171.99849 121.0 57.0
116.36722 85.0 166.0
116.38124 85.0 164.0
116.36825 85.0 165.0
171.82281 120.0 55.0
171.82397 120.0 56.0
94.17677 99.0 165.0
161.82332 157.0 165.0
94.177246 157.0 165.0
161.82286 99.0 165.0
171.82512 120.0 54.0
156.7788 94.0 69.0
156.78351 94.0 70.0
156.77956 94.0 71.0
156.78357 94.0 72.0
99.22125 162.0 69.0
103.18629 165.0 114.0
103.1884 165.0 115.0
103.19051 165.0 116.0
99.2165 162.0 70.0
99.22046 162.0 71.0
83.496796 130.0 178.0
83.493904 130.0 179.0
83.496796 126.0 178.0
83.493904 126.0 179.0
99.216415 162.0 72.0
101.75464 92.0 114.0
101.75705 92.0 116.0
101.75201 92.0 115.0
154.24542 164.0 114.0
154.24297 164.0 116.0
106.4641 89.0 65.0
154.24803 164.0 115.0
149.53587 167.0 65.0
145.41124 169.0 190.0
145.42743 169.0 191.0
110.58874 87.0 190.0
139.62308 85.0 56.0
110.572556 87.0 191.0
139.64215 85.0 54.0
139.61566 85.0 55.0
116.37695 171.0 56.0
116.35788 171.0 54.0
116.38438 171.0 55.0
149.53227 167.0 153.0
149.53334 167.0 154.0
106.46791 89.0 153.0
106.4668 89.0 154.0
134.975 172.0 196.0
134.93666 172.0 197.0
116.3508 85.0 61.0
116.373856 85.0 62.0
139.64917 171.0 61.0
139.62613 171.0 62.0
121.03164 172.0 196.0
121.0559 172.0 197.0
157.92204 161.0 173.0
157.92259 161.0 174.0
157.92313 161.0 175.0
121.024956 84.0 196.0
121.063286 84.0 197.0
98.077995 95.0 173.0
98.07747 95.0 174.0
98.076935 95.0 175.0
98.07782 161.0 174.0
98.07726 161.0 175.0
157.92224 95.0 174.0
157.9228 95.0 175.0
134.96838 84.0 196.0
158.999 96.0 71.0
159.9925 97.0 71.0
96.00773 159.0 71.0
97.000824 160.0 71.0
96.999916 96.0 71.0
96.00855 97.0 71.0
159.99164 159.0 71.0
158.9999 160.0 71.0
134.94412 84.0 197.0
134.96078 84.0 56.0
134.94751 84.0 55.0
134.92033 84.0 118.0
134.93616 84.0 116.0
134.9442 84.0 117.0
121.0365 84.0 55.0
121.03926 172.0 56.0
121.052536 172.0 55.0
83.46844 129.0 172.0
83.49608 130.0 172.0
139.63824 171.0 167.0
83.49608 126.0 172.0
83.46844 127.0 172.0
116.36158 85.0 167.0
134.96344 172.0 55.0
104.75905 90.0 101.0
104.75349 90.0 102.0
139.60684 171.0 197.0
139.63574 171.0 198.0
151.24097 166.0 101.0
116.39312 85.0 197.0
116.36422 85.0 198.0
116.373924 171.0 196.0
116.38509 171.0 197.0
116.35789 171.0 198.0
139.62611 85.0 196.0
139.61493 85.0 197.0
139.64215 85.0 198.0
116.40571 85.0 56.0
116.36101 85.0 57.0
116.36319 85.0 54.0
116.3908 85.0 55.0
139.59427 171.0 56.0
139.63898 171.0 57.0
139.63678 171.0 54.0
139.60918 171.0 55.0
151.24628 166.0 102.0
139.64801 85.0 85.0
139.63193 85.0 86.0
113.16665 170.0 170.0
113.15595 170.0 171.0
116.35188 171.0 85.0
116.36797 171.0 86.0
95.066154 158.0 182.0
95.06976 158.0 183.0
160.93384 98.0 182.0
160.93024 98.0 183.0
160.93456 158.0 182.0
160.93124 158.0 183.0
95.06542 98.0 182.0
95.06874 98.0 183.0
83.63288 124.0 72.0
113.154816 170.0 172.0
166.7383 150.0 182.0
166.13733 151.0 182.0
165.53638 152.0 182.0
166.1457 151.0 183.0
166.15408 151.0 184.0
83.63162 132.0 71.0
83.6324 132.0 72.0
89.86327 105.0 182.0
89.2636 106.0 182.0
89.85479 105.0 183.0
89.846306 105.0 184.0
89.26483 150.0 182.0
89.86269 151.0 182.0
89.854355 151.0 183.0
89.84601 151.0 184.0
166.13785 105.0 182.0
166.737 106.0 182.0
166.14609 105.0 183.0
166.15433 105.0 184.0
101.75982 164.0 194.0
101.75804 164.0 195.0
101.759094 164.0 196.0
154.24019 92.0 194.0
154.24196 92.0 195.0
154.2409 92.0 196.0
94.18568 99.0 78.0
93.3466 100.0 78.0
94.17967 99.0 79.0
94.18042 99.0 76.0
94.182175 99.0 77.0
162.65384 156.0 78.0
161.81416 157.0 78.0
161.82013 157.0 79.0
161.81944 157.0 76.0
161.8177 157.0 77.0
161.81416 99.0 78.0
162.65404 100.0 78.0
161.81958 99.0 79.0
161.81923 99.0 76.0
161.8176 99.0 77.0
93.34648 156.0 78.0
94.18569 157.0 78.0
94.18019 157.0 79.0
94.18066 157.0 76.0
94.182304 157.0 77.0
113.16195 86.0 83.0
113.15034 86.0 84.0
142.83327 86.0 170.0
142.844 86.0 171.0
142.83797 170.0 83.0
142.84956 170.0 84.0
113.14112 86.0 55.0
121.030754 172.0 175.0
142.85887 170.0 55.0
121.012634 84.0 61.0
121.05451 84.0 62.0
121.0082 84.0 131.0
121.03062 84.0 132.0
121.053024 84.0 133.0
121.03699 84.0 134.0
121.01052 84.0 135.0
121.06882 84.0 118.0
121.04607 84.0 119.0
121.02358 84.0 116.0
121.05455 84.0 117.0
134.94585 84.0 119.0
134.9838 84.0 120.0
142.84518 86.0 172.0
134.98732 172.0 61.0
134.94545 172.0 62.0
134.9696 84.0 175.0
159.001 160.0 193.0
159.98065 159.0 194.0
134.98705 84.0 133.0
134.95319 84.0 134.0
83.728096 123.0 53.0
83.73298 123.0 54.0
83.737854 123.0 55.0
83.7283 133.0 53.0
83.73359 133.0 54.0
83.73888 133.0 55.0
110.57366 169.0 194.0
110.567856 169.0 195.0
110.56205 169.0 196.0
145.42636 87.0 194.0
145.43216 87.0 195.0
145.43797 87.0 196.0
121.01506 172.0 119.0
172.14442 134.0 195.0
171.9937 135.0 195.0
172.14357 134.0 194.0
171.99422 135.0 194.0
171.99371 121.0 195.0
172.14442 122.0 195.0
171.99423 121.0 194.0
172.14355 122.0 194.0
97.014145 160.0 171.0
152.81398 91.0 113.0
151.26035 90.0 110.0
103.18626 165.0 113.0
104.73932 166.0 110.0
121.02329 172.0 118.0
121.04708 172.0 133.0
121.05208 172.0 134.0
121.01865 172.0 135.0
97.01481 160.0 172.0
97.01454 160.0 173.0
95.999146 159.0 168.0
96.00055 159.0 169.0
96.00195 159.0 170.0
151.25943 90.0 102.0
151.25542 90.0 103.0
151.2514 90.0 104.0
104.740814 166.0 102.0
104.744835 166.0 103.0
104.74885 166.0 104.0
147.61812 168.0 142.0
152.81828 91.0 58.0
152.81592 91.0 57.0
103.18175 165.0 58.0
103.184105 165.0 57.0
151.25165 90.0 81.0
151.24034 90.0 82.0
97.01548 160.0 169.0
97.01352 160.0 170.0
158.98586 96.0 171.0
100.43415 93.0 159.0
158.9852 96.0 172.0
158.98547 96.0 173.0
155.56573 163.0 159.0
104.74839 166.0 81.0
104.7597 166.0 82.0
134.96884 84.0 85.0
134.92706 84.0 86.0
160.0008 97.0 168.0
159.99937 97.0 169.0
159.99796 97.0 170.0
172.50496 126.0 72.0
172.50385 126.0 73.0
88.7085 107.0 89.0
89.26191 106.0 90.0
172.50496 130.0 72.0
172.50383 130.0 73.0
88.70723 107.0 90.0
88.709366 107.0 91.0
121.0309 172.0 85.0
121.07265 172.0 86.0
158.98451 96.0 169.0
158.98648 96.0 170.0
97.01376 96.0 170.0
97.014565 96.0 171.0
97.01515 96.0 172.0
97.01487 96.0 173.0
95.99975 97.0 168.0
96.001205 97.0 169.0
96.002655 97.0 170.0
97.01573 96.0 169.0
158.98624 160.0 170.0
158.98543 160.0 171.0
158.98485 160.0 172.0
158.98514 160.0 173.0
160.00018 159.0 168.0
159.99872 159.0 169.0
159.99725 159.0 170.0
158.98425 160.0 169.0
108.384445 88.0 159.0
95.065285 158.0 166.0
95.076294 158.0 167.0
147.61497 168.0 159.0
95.07954 158.0 168.0
95.06854 158.0 169.0
165.5223 104.0 196.0
165.5213 104.0 197.0
165.52843 104.0 198.0
165.53555 104.0 199.0
165.52248 152.0 196.0
165.52106 152.0 197.0
165.5283 152.0 198.0
165.53555 152.0 199.0
90.47749 152.0 196.0
90.478775 152.0 197.0
90.47162 152.0 198.0
90.46446 152.0 199.0
90.4773 104.0 196.0
90.479 104.0 197.0
90.471725 104.0 198.0
90.46445 104.0 199.0
121.04113 172.0 165.0
121.01588 172.0 166.0
121.02387 172.0 117.0
134.95891 84.0 165.0
134.98413 84.0 166.0
91.824165 102.0 57.0
91.82689 102.0 54.0
91.83205 102.0 55.0
164.176 154.0 57.0
164.17313 154.0 54.0
164.16795 154.0 55.0
164.17564 102.0 57.0
164.17317 102.0 54.0
164.16812 102.0 55.0
91.82452 154.0 57.0
91.826866 154.0 54.0
91.8319 154.0 55.0
160.93474 98.0 166.0
160.92375 98.0 167.0
160.92052 98.0 168.0
160.9315 98.0 169.0
139.63289 85.0 78.0
166.74359 106.0 78.0
166.15341 105.0 79.0
166.74243 106.0 79.0
166.1539 105.0 80.0
166.74149 106.0 80.0
166.15521 105.0 81.0
89.25772 150.0 78.0
89.25877 150.0 79.0
89.84597 151.0 79.0
89.259605 150.0 80.0
89.84547 151.0 80.0
89.84424 151.0 81.0
89.2576 106.0 78.0
89.84604 105.0 79.0
89.25865 106.0 79.0
89.84557 105.0 80.0
89.25952 106.0 80.0
89.84435 105.0 81.0
166.74364 150.0 78.0
166.74248 150.0 79.0
166.15337 151.0 79.0
166.74153 150.0 80.0
166.15385 151.0 80.0
166.15515 151.0 81.0
92.56583 101.0 84.0
92.562935 101.0 85.0
91.820625 102.0 85.0
91.81985 102.0 86.0
91.81908 102.0 87.0
116.3671 171.0 78.0
163.43399 155.0 84.0
163.4369 155.0 85.0
164.17969 154.0 85.0
164.18042 154.0 86.0
164.18115 154.0 87.0
92.56556 155.0 84.0
92.56263 155.0 85.0
91.82096 154.0 85.0
91.82022 154.0 86.0
91.81948 154.0 87.0
163.43422 101.0 84.0
163.43718 101.0 85.0
164.17937 102.0 85.0
164.18007 102.0 86.0
164.18076 102.0 87.0
121.074615 172.0 173.0
121.03087 172.0 174.0
134.92502 84.0 173.0
134.96881 84.0 174.0
106.462166 89.0 134.0
106.46356 89.0 135.0
106.464966 89.0 136.0
149.53725 167.0 134.0
149.5355 167.0 135.0
149.53375 167.0 136.0
101.76004 92.0 102.0
100.43344 93.0 102.0
100.43704 93.0 101.0
155.5665 163.0 102.0
154.23996 164.0 102.0
155.56297 163.0 101.0
100.44433 163.0 102.0
100.4404 163.0 103.0
100.4404 163.0 101.0
155.5557 93.0 102.0
155.55965 93.0 103.0
155.55963 93.0 101.0
158.998 96.0 73.0
158.99324 96.0 74.0
158.98848 96.0 75.0
157.92943 95.0 75.0
158.99081 96.0 76.0
97.00217 160.0 73.0
97.006935 160.0 74.0
97.0117 160.0 75.0
98.07043 161.0 75.0
97.00932 160.0 76.0
97.006454 96.0 74.0
97.011086 96.0 75.0
97.00894 96.0 76.0
158.99365 160.0 74.0
158.98903 160.0 75.0
158.99115 160.0 76.0
104.749825 166.0 170.0
104.74552 166.0 171.0
159.99263 97.0 88.0
147.61874 168.0 173.0
147.61755 168.0 174.0
147.61636 168.0 175.0
96.00742 159.0 88.0
151.25018 90.0 170.0
151.25447 90.0 171.0
96.019936 97.0 87.0
159.98013 159.0 87.0
91.8252 154.0 195.0
91.83745 154.0 196.0
91.836945 154.0 197.0
91.829 154.0 198.0
164.17462 102.0 195.0
164.1624 102.0 196.0
164.16312 102.0 197.0
164.17104 102.0 198.0
164.17526 154.0 195.0
164.16289 154.0 196.0
164.16293 154.0 197.0
164.17099 154.0 198.0
91.82454 102.0 195.0
91.836945 102.0 196.0
91.83712 102.0 197.0
91.82904 102.0 198.0
108.3816 168.0 172.0
108.38521 168.0 173.0
108.38849 168.0 174.0
147.61842 88.0 172.0
147.6148 88.0 173.0
147.61153 88.0 174.0
116.34357 171.0 116.0
103.1904 91.0 74.0
101.7571 92.0 71.0
101.75581 92.0 72.0
101.75453 92.0 73.0
108.38126 88.0 173.0
108.38245 88.0 174.0
108.38363 88.0 175.0
152.80957 165.0 74.0
154.24284 164.0 71.0
154.24414 164.0 72.0
154.24542 164.0 73.0
134.95686 172.0 119.0
134.98645 172.0 120.0
116.34748 171.0 117.0
116.34926 85.0 136.0
103.184135 165.0 120.0
103.19081 165.0 121.0
116.347374 85.0 135.0
95.06576 98.0 166.0
95.07687 98.0 167.0
152.81592 91.0 120.0
152.8092 91.0 121.0
139.64706 171.0 134.0
139.6472 171.0 135.0
98.0763 95.0 86.0
98.07756 95.0 87.0
98.07407 95.0 85.0
157.92366 161.0 86.0
157.92241 161.0 87.0
157.92589 161.0 85.0
91.12641 153.0 166.0
91.13121 153.0 167.0
164.87366 103.0 166.0
164.8689 103.0 167.0
91.12643 103.0 166.0
91.13122 103.0 167.0
164.87364 153.0 166.0
164.8689 153.0 167.0
170.29022 114.0 77.0
170.61153 115.0 77.0
170.2939 114.0 78.0
85.388824 141.0 77.0
85.70919 142.0 77.0
85.705826 142.0 78.0
85.70965 114.0 77.0
85.3889 115.0 77.0
85.70628 114.0 78.0
85.70293 114.0 79.0
170.61151 141.0 77.0
170.2902 142.0 77.0
170.2939 142.0 78.0
98.07303 161.0 86.0
98.074486 161.0 87.0
157.92693 95.0 86.0
157.92546 95.0 87.0
159.00029 96.0 72.0
157.92581 95.0 72.0
157.92737 95.0 73.0
157.92892 95.0 74.0
96.99994 160.0 72.0
98.074104 161.0 72.0
98.07254 161.0 73.0
98.070984 161.0 74.0
98.08131 95.0 72.0
97.00155 96.0 72.0
98.075356 95.0 73.0
97.002975 96.0 73.0
98.068115 95.0 74.0
158.99867 160.0 72.0
157.91864 161.0 72.0
158.99722 160.0 73.0
157.92456 161.0 73.0
157.9318 161.0 74.0
155.56512 93.0 82.0
155.55705 93.0 83.0
154.24529 92.0 83.0
155.55936 93.0 84.0
134.98778 172.0 116.0
134.96329 172.0 117.0
134.9388 172.0 118.0
147.61725 168.0 179.0
147.6199 168.0 180.0
147.62257 168.0 181.0
100.434944 163.0 82.0
100.44302 163.0 83.0
101.75465 164.0 83.0
100.4407 163.0 84.0
108.38274 88.0 179.0
108.38007 88.0 180.0
108.37741 88.0 181.0
99.214035 94.0 69.0
103.196144 165.0 184.0
103.196205 165.0 185.0
103.19795 165.0 186.0
152.80386 91.0 184.0
152.8038 91.0 185.0
152.80206 91.0 186.0
145.41646 87.0 130.0
145.41597 87.0 131.0
145.41954 87.0 128.0
145.41734 87.0 129.0
110.583824 169.0 130.0
110.58414 169.0 131.0
110.58055 169.0 128.0
110.58246 169.0 129.0
151.25186 90.0 128.0
151.25311 90.0 129.0
151.25647 90.0 130.0
104.74817 166.0 128.0
104.74679 166.0 129.0
104.743385 166.0 130.0
99.213036 94.0 70.0
156.78595 162.0 69.0
104.74079 166.0 165.0
104.74636 166.0 166.0
156.78694 162.0 70.0
95.07891 98.0 168.0
95.0678 98.0 169.0
151.2537 90.0 166.0
160.93427 158.0 166.0
160.92317 158.0 167.0
134.95947 84.0 78.0
134.9599 172.0 133.0
121.04047 172.0 78.0
134.9728 172.0 175.0
134.93239 172.0 176.0
96.01229 97.0 195.0
96.00393 97.0 196.0
104.754524 90.0 60.0
104.759895 90.0 61.0
104.75578 90.0 62.0
104.74833 90.0 63.0
151.24547 166.0 60.0
151.2401 166.0 61.0
155.55621 93.0 54.0
155.54668 93.0 55.0
100.4438 163.0 54.0
100.45335 163.0 55.0
151.2442 166.0 62.0
151.25166 166.0 63.0
145.39354 87.0 145.0
145.42224 87.0 146.0
110.604774 169.0 145.0
110.57596 169.0 146.0
94.183945 157.0 182.0
94.180565 157.0 183.0
93.347435 156.0 180.0
94.18962 157.0 181.0
161.81609 99.0 182.0
161.81946 99.0 183.0
162.65305 100.0 180.0
161.81044 99.0 181.0
161.81784 157.0 182.0
161.81248 157.0 181.0
94.18219 99.0 182.0
93.34385 100.0 180.0
94.18757 99.0 181.0
116.376 85.0 127.0
160.92114 158.0 168.0
160.93224 158.0 169.0
92.57189 155.0 79.0
92.56799 155.0 80.0
163.42825 101.0 79.0
163.43214 101.0 80.0
92.571754 101.0 79.0
92.56793 101.0 80.0
163.42839 155.0 79.0
163.4322 155.0 80.0
116.34384 171.0 158.0
139.65627 85.0 158.0
121.018684 172.0 158.0
151.25008 166.0 195.0
151.23082 166.0 196.0
158.99571 160.0 183.0
158.9897 160.0 182.0
97.00433 96.0 183.0
116.37664 85.0 128.0
116.3799 85.0 129.0
116.362206 85.0 125.0
116.38563 85.0 126.0
84.17428 120.0 54.0
84.174995 120.0 55.0
84.17433 136.0 54.0
84.17521 136.0 55.0
97.01035 96.0 182.0
83.44599 128.0 53.0
83.44803 128.0 54.0
83.46472 127.0 55.0
83.45007 128.0 55.0
97.00355 160.0 183.0
97.0104 160.0 182.0
158.99652 96.0 183.0
158.98965 96.0 182.0
134.98141 84.0 158.0
106.45906 89.0 103.0
106.46479 89.0 104.0
106.463104 89.0 105.0
149.5412 167.0 103.0
149.5355 167.0 104.0
158.98335 96.0 78.0
158.98912 96.0 79.0
158.99489 96.0 80.0
149.53694 167.0 105.0
97.016655 160.0 78.0
97.010864 160.0 79.0
97.00508 160.0 80.0
97.01397 96.0 78.0
97.008965 96.0 79.0
97.00395 96.0 80.0
165.53099 152.0 195.0
121.02721 84.0 175.0
121.067604 84.0 176.0
90.46894 104.0 195.0
90.469215 152.0 195.0
165.53072 104.0 195.0
121.0131 84.0 94.0
158.98601 160.0 78.0
158.991 160.0 79.0
158.996 160.0 80.0
172.13806 122.0 54.0
172.00026 121.0 55.0
172.14084 122.0 55.0
172.13806 134.0 54.0
172.14082 134.0 55.0
172.00026 135.0 55.0
83.46238 127.0 174.0
83.46109 127.0 175.0
83.45935 127.0 176.0
83.445496 128.0 174.0
83.46238 129.0 174.0
83.445496 128.0 175.0
83.46109 129.0 175.0
83.45935 129.0 176.0
100.43611 93.0 67.0
100.437035 93.0 68.0
155.56386 163.0 67.0
155.56294 163.0 68.0
151.23518 166.0 197.0
151.24782 166.0 198.0
104.749916 90.0 195.0
104.769165 90.0 196.0
134.98648 172.0 94.0
149.51297 89.0 53.0
149.52438 89.0 54.0
149.5358 89.0 55.0
106.48704 167.0 53.0
106.475624 167.0 54.0
106.46422 167.0 55.0
103.183784 91.0 110.0
103.18775 91.0 111.0
152.81633 165.0 110.0
152.81236 165.0 111.0
158.99481 96.0 60.0
158.98746 96.0 61.0
158.98009 96.0 62.0
158.98445 96.0 63.0
158.99313 96.0 64.0
154.24284 92.0 63.0
97.00518 160.0 60.0
97.01256 160.0 61.0
97.019936 160.0 62.0
97.015526 160.0 63.0
97.00683 160.0 64.0
97.00236 96.0 60.0
97.00945 96.0 61.0
97.01654 96.0 62.0
154.25018 92.0 59.0
154.24475 92.0 60.0
154.23932 92.0 61.0
97.01724 96.0 63.0
97.00865 96.0 64.0
158.99762 160.0 60.0
158.99054 160.0 61.0
158.98346 160.0 62.0
154.24403 92.0 62.0
101.75717 164.0 63.0
93.34534 100.0 76.0
101.7498 164.0 59.0
101.75524 164.0 60.0
101.76068 164.0 61.0
101.75595 164.0 62.0
162.65428 156.0 76.0
151.25829 90.0 60.0
162.65414 100.0 76.0
104.741714 166.0 60.0
93.3455 156.0 76.0
158.98274 160.0 63.0
158.99132 160.0 64.0
149.5248 89.0 104.0
149.53545 89.0 105.0
149.53227 89.0 103.0
147.5963 88.0 121.0
147.61017 88.0 122.0
106.47543 167.0 104.0
106.46482 167.0 105.0
106.46807 167.0 103.0
147.60559 88.0 120.0
110.576164 169.0 121.0
110.56784 169.0 122.0
134.9415 84.0 79.0
110.57089 169.0 120.0
134.91849 84.0 76.0
134.95512 84.0 77.0
134.9575 84.0 80.0
134.95013 84.0 81.0
121.08159 172.0 76.0
121.04497 172.0 77.0
149.54091 167.0 180.0
149.53488 167.0 181.0
149.52885 167.0 182.0
106.4591 89.0 180.0
106.465126 89.0 181.0
106.471146 89.0 182.0
149.5393 89.0 142.0
149.53334 89.0 143.0
149.527 89.0 144.0
106.46049 167.0 142.0
106.4665 167.0 143.0
106.47281 167.0 144.0
101.760925 92.0 159.0
101.753914 92.0 160.0
154.23895 164.0 159.0
154.24597 164.0 160.0
104.75587 166.0 188.0
104.75378 166.0 189.0
104.75139 166.0 190.0
151.24416 90.0 188.0
151.24623 90.0 189.0
151.24863 90.0 190.0
134.96062 84.0 82.0
134.98552 84.0 83.0
134.95204 172.0 174.0
100.445305 163.0 193.0
100.439186 163.0 194.0
155.55472 93.0 193.0
155.56084 93.0 194.0
154.23358 164.0 195.0
154.24335 164.0 196.0
154.24449 164.0 193.0
154.2378 164.0 194.0
155.54767 163.0 192.0
155.55782 163.0 193.0
85.38748 115.0 85.0
101.76642 92.0 195.0
101.75665 92.0 196.0
170.61235 141.0 85.0
101.75551 92.0 193.0
101.76219 92.0 194.0
170.61235 115.0 85.0
100.45235 93.0 192.0
100.44219 93.0 193.0
85.38744 141.0 85.0
101.759514 164.0 169.0
101.76739 164.0 170.0
101.76513 164.0 171.0
101.75419 164.0 172.0
154.24052 92.0 169.0
154.23265 92.0 170.0
154.23488 92.0 171.0
154.2458 92.0 172.0
121.0585 172.0 79.0
121.047966 84.0 174.0
101.754326 92.0 144.0
103.18449 91.0 144.0
103.19091 91.0 145.0
103.19181 91.0 146.0
154.24577 164.0 144.0
152.81546 165.0 144.0
152.809 165.0 145.0
152.80795 165.0 146.0
108.3829 168.0 180.0
121.04251 172.0 80.0
121.04985 172.0 81.0
121.03939 172.0 82.0
121.01452 172.0 83.0
108.38183 168.0 181.0
147.61713 88.0 180.0
108.38091 88.0 65.0
147.61816 88.0 181.0
147.61906 168.0 65.0
149.52724 89.0 64.0
149.53908 89.0 62.0
149.52579 89.0 63.0
106.47277 167.0 64.0
106.460945 167.0 62.0
106.47423 167.0 63.0
103.18066 165.0 139.0
113.14381 170.0 159.0
113.13574 170.0 160.0
142.85551 86.0 159.0
142.86365 86.0 160.0
104.7648 90.0 197.0
104.752174 90.0 198.0
154.2468 164.0 168.0
154.24033 164.0 169.0
154.23453 164.0 170.0
154.23994 164.0 171.0
101.75322 92.0 168.0
101.75969 92.0 169.0
101.765465 92.0 170.0
101.76004 92.0 171.0
152.8194 91.0 139.0
147.62184 88.0 109.0
152.80878 165.0 175.0
152.81068 165.0 176.0
106.46123 167.0 160.0
106.468605 167.0 161.0
106.47598 167.0 162.0
149.53893 89.0 160.0
149.53154 89.0 161.0
149.52415 89.0 162.0
103.19119 91.0 175.0
103.18928 91.0 176.0
108.37725 168.0 109.0
151.25381 166.0 164.0
151.25737 166.0 165.0
151.24617 166.0 162.0
151.2485 166.0 163.0
104.74619 90.0 164.0
104.74263 90.0 165.0
172.50381 126.0 74.0
172.50449 126.0 75.0
172.50381 130.0 74.0
172.50449 130.0 75.0
104.75386 90.0 162.0
104.751526 90.0 163.0
103.189964 91.0 147.0
103.19457 91.0 148.0
103.18888 91.0 149.0
145.42854 87.0 55.0
152.8102 165.0 147.0
94.17936 99.0 73.0
94.18056 99.0 74.0
93.353546 100.0 74.0
161.8203 157.0 73.0
162.64685 156.0 74.0
161.8191 157.0 74.0
161.81967 99.0 73.0
161.81851 99.0 74.0
162.64696 100.0 74.0
94.179985 157.0 73.0
93.35349 156.0 74.0
94.18117 157.0 74.0
110.57148 169.0 55.0
101.76963 164.0 190.0
152.80547 165.0 148.0
152.81117 165.0 149.0
152.81686 165.0 150.0
151.25014 90.0 117.0
100.447845 93.0 144.0
100.44153 93.0 145.0
151.25294 90.0 118.0
100.43454 93.0 142.0
100.444305 93.0 143.0
155.55203 163.0 144.0
155.5584 163.0 145.0
101.77229 164.0 188.0
101.76591 164.0 189.0
155.56544 163.0 142.0
155.55562 163.0 143.0
104.74984 166.0 117.0
104.74712 166.0 118.0
113.14111 86.0 93.0
113.14162 86.0 95.0
113.14503 86.0 94.0
142.85905 170.0 93.0
142.85847 170.0 95.0
142.8548 170.0 94.0
101.774445 164.0 191.0
101.76922 164.0 192.0
134.9704 84.0 141.0
134.92953 84.0 142.0
157.92091 95.0 69.0
157.92209 95.0 70.0
157.9261 95.0 71.0
98.079094 161.0 69.0
98.07788 161.0 70.0
98.07385 161.0 71.0
98.07586 95.0 69.0
98.07726 95.0 70.0
98.078094 95.0 71.0
157.92412 161.0 69.0
157.9227 161.0 70.0
157.92188 161.0 71.0
154.23904 92.0 90.0
101.760956 164.0 90.0
154.23038 92.0 190.0
101.763435 92.0 89.0
154.23656 164.0 89.0
139.65802 85.0 118.0
139.6509 85.0 119.0
139.64375 85.0 120.0
154.22772 92.0 188.0
154.2341 92.0 189.0
91.83097 154.0 173.0
92.5701 155.0 173.0
92.5634 155.0 174.0
163.42975 101.0 173.0
164.16942 102.0 173.0
163.4364 101.0 174.0
154.22557 92.0 191.0
154.2308 92.0 192.0
92.570244 101.0 173.0
91.830215 102.0 173.0
92.563576 101.0 174.0
106.47162 89.0 146.0
164.17018 154.0 173.0
163.42961 155.0 173.0
163.43623 155.0 174.0
106.469376 89.0 145.0
106.47275 89.0 143.0
106.47495 89.0 144.0
149.528 167.0 146.0
149.52934 167.0 145.0
149.52588 167.0 143.0
149.52385 167.0 144.0
147.59818 168.0 164.0
147.58461 168.0 165.0
147.59872 168.0 166.0
147.61745 168.0 167.0
100.44146 163.0 195.0
100.451866 163.0 196.0
108.40198 88.0 164.0
108.41553 88.0 165.0
108.401085 88.0 166.0
108.38238 88.0 167.0
121.056366 84.0 110.0
100.452034 163.0 197.0
100.44383 163.0 198.0
145.42532 169.0 192.0
145.42387 169.0 193.0
110.57467 87.0 192.0
110.57611 87.0 193.0
121.0521 172.0 142.0
121.03128 84.0 80.0
121.06248 84.0 81.0
121.08256 84.0 82.0
121.04924 84.0 83.0
121.01592 84.0 84.0
110.57738 169.0 123.0
98.0801 95.0 157.0
98.07783 95.0 158.0
116.34565 85.0 133.0
116.34645 85.0 134.0
157.91989 161.0 157.0
157.92216 161.0 158.0
98.079865 161.0 157.0
98.07765 161.0 158.0
145.42387 87.0 123.0
157.92014 95.0 157.0
157.92235 95.0 158.0
104.74976 90.0 135.0
104.74616 90.0 138.0
151.24982 166.0 135.0
134.97722 172.0 141.0
116.353966 171.0 118.0
116.358 171.0 119.0
151.25327 166.0 138.0
134.96877 172.0 80.0
134.93759 172.0 81.0
145.42513 169.0 157.0
134.93027 172.0 110.0
134.98058 172.0 111.0
110.57481 87.0 157.0
139.6403 85.0 77.0
116.35974 171.0 77.0
169.57524 112.0 58.0
169.93874 113.0 58.0
169.9453 113.0 59.0
86.06117 143.0 58.0
86.42321 144.0 58.0
86.05452 143.0 59.0
86.42341 112.0 58.0
86.0613 113.0 58.0
86.05469 113.0 59.0
169.9387 143.0 58.0
169.5752 144.0 58.0
169.94527 143.0 59.0
96.99895 96.0 193.0
96.019356 97.0 194.0
121.02197 84.0 78.0
121.063545 84.0 79.0
134.91716 172.0 82.0
134.95045 172.0 83.0
134.98373 172.0 84.0
116.37036 85.0 111.0
121.05653 172.0 172.0
134.97823 172.0 78.0
134.93665 172.0 79.0
121.09052 172.0 170.0
121.05571 172.0 171.0
139.61821 171.0 111.0
139.63907 171.0 175.0
139.61444 171.0 176.0
116.36097 85.0 175.0
116.38558 85.0 176.0
139.6364 171.0 174.0
116.37173 85.0 140.0
116.3507 85.0 138.0
116.353165 85.0 139.0
120.999275 172.0 167.0
121.03334 172.0 168.0
121.067406 172.0 169.0
155.55855 93.0 195.0
155.54814 93.0 196.0
116.36355 85.0 174.0
134.94353 84.0 172.0
139.65552 85.0 113.0
139.66536 85.0 114.0
121.03657 84.0 77.0
116.35313 171.0 113.0
116.348854 171.0 114.0
134.90936 84.0 170.0
134.94424 84.0 171.0
134.96324 172.0 77.0
145.42934 87.0 112.0
145.42352 87.0 113.0
145.41771 87.0 114.0
110.57146 169.0 112.0
110.577225 169.0 113.0
110.58228 169.0 114.0
92.56243 155.0 158.0
92.56003 155.0 159.0
93.35403 156.0 159.0
93.3514 156.0 157.0
93.35383 156.0 158.0
135.00127 84.0 167.0
134.96715 84.0 168.0
134.93303 84.0 169.0
163.43758 101.0 158.0
162.64597 100.0 159.0
163.43999 101.0 159.0
162.64859 100.0 157.0
162.64616 100.0 158.0
92.56244 101.0 158.0
93.35413 100.0 159.0
92.55997 101.0 159.0
93.351456 100.0 157.0
93.35397 100.0 158.0
163.43756 155.0 158.0
163.44005 155.0 159.0
162.64584 156.0 159.0
162.64853 156.0 157.0
162.646 156.0 158.0
101.7743 92.0 82.0
100.43045 93.0 83.0
101.76081 92.0 79.0
101.76534 92.0 80.0
101.76988 92.0 81.0
154.2257 164.0 82.0
155.56963 163.0 83.0
139.64975 171.0 133.0
154.23917 164.0 79.0
154.23463 164.0 80.0
154.23012 164.0 81.0
151.25056 90.0 125.0
151.234 90.0 126.0
151.25064 90.0 127.0
104.74979 166.0 125.0
104.765976 166.0 126.0
104.74931 166.0 127.0
108.37875 168.0 96.0
170.61423 115.0 72.0
170.2918 114.0 73.0
85.38685 141.0 72.0
85.70955 142.0 72.0
85.70623 142.0 73.0
85.70291 142.0 74.0
85.70998 114.0 72.0
85.38733 115.0 72.0
85.70667 114.0 73.0
85.70336 114.0 74.0
170.61421 141.0 72.0
170.29178 142.0 73.0
103.18249 91.0 114.0
103.17948 91.0 115.0
95.06604 98.0 76.0
147.62003 88.0 94.0
160.93388 158.0 76.0
101.76011 164.0 113.0
101.75275 164.0 114.0
101.75499 164.0 116.0
160.93333 98.0 76.0
95.06661 158.0 76.0
87.70731 109.0 78.0
87.7031 109.0 79.0
87.70506 109.0 77.0
168.29417 147.0 78.0
168.29807 147.0 79.0
168.29604 147.0 77.0
168.29417 109.0 78.0
168.29807 109.0 79.0
168.29602 109.0 77.0
87.70719 147.0 78.0
87.70299 147.0 79.0
87.705215 147.0 77.0
154.2399 92.0 113.0
154.24728 92.0 114.0
154.24503 92.0 116.0
108.3797 168.0 94.0
106.47663 89.0 140.0
106.46516 89.0 141.0
106.46347 89.0 138.0
106.47188 89.0 139.0
152.81766 165.0 114.0
152.82066 165.0 115.0
149.52339 167.0 140.0
149.53519 167.0 141.0
149.53714 167.0 138.0
149.52852 167.0 139.0
113.144135 170.0 168.0
113.1612 170.0 169.0
149.53236 167.0 169.0
149.53302 167.0 170.0
106.46758 89.0 169.0
106.46694 89.0 170.0
142.84407 86.0 58.0
113.15595 170.0 58.0
142.85095 170.0 193.0
142.84137 170.0 194.0
95.0708 98.0 79.0
95.064064 98.0 80.0
95.06745 98.0 77.0
95.07722 98.0 78.0
160.92935 158.0 79.0
160.93607 158.0 80.0
160.93263 158.0 77.0
160.92291 158.0 78.0
160.92873 98.0 79.0
160.93549 98.0 80.0
160.93307 98.0 77.0
160.92343 98.0 78.0
95.07145 158.0 79.0
95.06467 158.0 80.0
95.06706 158.0 77.0
95.07675 158.0 78.0
113.14903 86.0 193.0
113.15861 86.0 194.0
142.86812 86.0 130.0
142.86148 86.0 129.0
113.133835 170.0 129.0
142.85608 86.0 168.0
142.83899 86.0 169.0
155.55647 93.0 58.0
94.18852 157.0 157.0
94.18608 157.0 158.0
94.18852 157.0 159.0
100.44357 163.0 58.0
94.18584 157.0 155.0
94.188446 157.0 156.0
101.75661 92.0 57.0
101.75741 92.0 58.0
101.75821 92.0 59.0
161.81148 99.0 157.0
161.81392 99.0 158.0
154.24336 164.0 57.0
154.24257 164.0 58.0
154.24176 164.0 59.0
161.8115 99.0 159.0
161.81416 99.0 155.0
161.81155 99.0 156.0
94.18862 99.0 157.0
94.18609 99.0 158.0
94.18859 99.0 159.0
94.185844 99.0 155.0
94.18858 99.0 156.0
161.81136 157.0 157.0
161.8139 157.0 158.0
161.8114 157.0 159.0
161.81415 157.0 155.0
161.8114 157.0 156.0
149.5324 89.0 80.0
149.53499 89.0 81.0
149.52937 167.0 196.0
149.53264 167.0 194.0
149.53265 167.0 195.0
149.53569 167.0 193.0
106.47061 89.0 196.0
106.467354 89.0 194.0
106.46734 89.0 195.0
106.46432 89.0 193.0
104.744316 166.0 175.0
104.74058 166.0 176.0
104.74381 166.0 174.0
104.74635 166.0 172.0
104.7404 166.0 173.0
151.25568 90.0 175.0
151.25941 90.0 176.0
151.25621 90.0 174.0
151.25365 90.0 172.0
151.2596 90.0 173.0
106.46667 167.0 194.0
106.46742 167.0 195.0
149.53917 167.0 160.0
149.531 167.0 161.0
149.53334 89.0 194.0
149.5326 89.0 195.0
106.46763 167.0 80.0
106.46503 167.0 81.0
104.75542 90.0 123.0
104.74832 90.0 124.0
151.24469 166.0 123.0
151.25172 166.0 124.0
108.382576 168.0 190.0
108.396545 168.0 191.0
147.61746 88.0 190.0
147.60349 88.0 191.0
108.39498 88.0 121.0
108.39515 88.0 122.0
145.42259 87.0 124.0
145.41803 87.0 125.0
145.41347 87.0 126.0
108.393074 88.0 123.0
147.60606 168.0 121.0
147.60603 168.0 122.0
110.577866 169.0 124.0
110.58207 169.0 125.0
110.58627 169.0 126.0
110.57406 87.0 142.0
147.60799 168.0 123.0
106.46105 89.0 160.0
106.46918 89.0 161.0
145.43352 169.0 142.0
135.00058 172.0 172.0
134.97331 172.0 173.0
113.16437 170.0 195.0
113.14636 170.0 196.0
113.15183 170.0 192.0
113.15906 170.0 193.0
113.16741 170.0 194.0
142.83566 86.0 195.0
142.85365 86.0 196.0
142.84818 86.0 192.0
97.01026 160.0 93.0
97.00414 160.0 94.0
145.42839 169.0 129.0
145.42035 169.0 130.0
145.4123 169.0 131.0
142.84097 86.0 193.0
142.83261 86.0 194.0
110.5804 87.0 130.0
110.58816 87.0 131.0
158.98978 96.0 93.0
158.9959 96.0 94.0
110.5743 169.0 155.0
110.57799 169.0 156.0
145.42249 87.0 156.0
147.61694 88.0 56.0
149.53029 89.0 56.0
97.00791 96.0 93.0
99.21687 162.0 165.0
99.21758 162.0 163.0
99.214836 162.0 164.0
158.99211 160.0 93.0
156.78317 94.0 165.0
156.78517 94.0 164.0
158.98997 96.0 77.0
97.010025 160.0 77.0
97.00995 96.0 77.0
158.99004 160.0 77.0
106.469734 167.0 56.0
108.383064 168.0 56.0
99.217224 94.0 165.0
99.21705 94.0 163.0
99.21441 94.0 164.0
156.7828 162.0 165.0
156.78294 162.0 163.0
156.78558 162.0 164.0
116.34523 85.0 85.0
116.36299 85.0 86.0
116.38075 85.0 87.0
83.46368 129.0 56.0
83.49316 130.0 57.0
83.465454 129.0 54.0
83.463455 129.0 55.0
83.47225 129.0 53.0
83.500824 130.0 53.0
83.49353 130.0 54.0
103.194855 91.0 99.0
152.80511 165.0 99.0
139.65483 171.0 85.0
139.6371 171.0 86.0
139.61935 171.0 87.0
145.43684 169.0 163.0
110.56322 87.0 163.0
104.75904 90.0 107.0
104.750046 90.0 108.0
104.74105 90.0 109.0
106.462204 89.0 109.0
106.46702 89.0 110.0
104.739815 90.0 112.0
151.2407 166.0 107.0
151.24966 166.0 108.0
151.25862 166.0 109.0
149.53839 167.0 109.0
149.53316 167.0 110.0
151.25993 166.0 112.0
142.84393 86.0 136.0
142.8343 86.0 137.0
142.84752 86.0 138.0
142.86075 86.0 139.0
172.5545 128.0 61.0
172.5545 128.0 62.0
113.15792 170.0 136.0
113.16766 170.0 137.0
104.75792 166.0 186.0
104.75723 166.0 187.0
104.75974 166.0 185.0
151.2421 90.0 186.0
151.24278 90.0 187.0
151.24028 90.0 185.0
113.15638 170.0 138.0
113.14331 170.0 139.0
147.61885 168.0 182.0
147.60915 168.0 183.0
147.59943 168.0 184.0
145.42577 87.0 58.0
108.38115 88.0 182.0
108.390854 88.0 183.0
108.400566 88.0 184.0
147.61328 88.0 92.0
147.61905 88.0 93.0
110.574234 169.0 58.0
147.6187 88.0 91.0
108.386826 168.0 92.0
108.38108 168.0 93.0
152.81587 91.0 132.0
108.3814 168.0 91.0
152.817 91.0 130.0
152.81357 91.0 131.0
106.4655 167.0 148.0
106.471085 167.0 146.0
106.47039 167.0 147.0
103.18415 165.0 132.0
103.18302 165.0 130.0
103.18647 165.0 131.0
149.53415 89.0 148.0
149.52869 89.0 146.0
149.52942 89.0 147.0
108.394806 168.0 194.0
147.60521 88.0 194.0
83.54962 131.0 189.0
83.493614 130.0 190.0
83.550186 131.0 190.0
83.55076 131.0 191.0
83.54963 125.0 189.0
83.5502 125.0 190.0
83.4936 126.0 190.0
83.55077 125.0 191.0
145.40526 87.0 136.0
113.1516 86.0 129.0
145.41508 87.0 137.0
110.59421 169.0 136.0
110.58452 169.0 137.0
103.1869 91.0 59.0
103.194275 91.0 60.0
152.8131 165.0 59.0
152.80571 165.0 60.0
106.458885 89.0 132.0
106.46086 89.0 133.0
149.54086 167.0 132.0
149.53862 167.0 133.0
121.0284 172.0 129.0
142.86356 170.0 128.0
142.84229 170.0 129.0
142.85814 170.0 130.0
104.77084 90.0 56.0
104.75864 90.0 57.0
151.25233 166.0 176.0
151.25432 166.0 177.0
120.99952 84.0 172.0
121.02678 84.0 173.0
121.014336 172.0 127.0
121.04623 172.0 128.0
99.21299 94.0 76.0
104.75329 90.0 54.0
104.76657 90.0 55.0
99.21187 94.0 75.0
98.06825 95.0 75.0
151.22914 166.0 56.0
151.24135 166.0 57.0
156.78706 162.0 76.0
151.2467 166.0 54.0
151.23341 166.0 55.0
157.93188 161.0 75.0
156.78806 162.0 75.0
147.60364 88.0 153.0
147.60321 88.0 154.0
156.78795 94.0 77.0
147.60822 88.0 150.0
147.60426 88.0 151.0
156.78453 94.0 76.0
147.60323 88.0 152.0
99.21214 162.0 77.0
108.39651 168.0 153.0
108.3969 168.0 154.0
99.21546 162.0 76.0
100.439766 163.0 188.0
100.445694 163.0 189.0
100.451164 163.0 190.0
100.44289 163.0 191.0
155.56021 93.0 188.0
155.55429 93.0 189.0
155.54884 93.0 190.0
155.55713 93.0 191.0
155.56572 163.0 188.0
155.56387 163.0 189.0
155.56317 163.0 190.0
108.39215 168.0 150.0
108.39604 168.0 151.0
104.74764 90.0 176.0
104.74565 90.0 177.0
100.43426 93.0 188.0
100.4361 93.0 189.0
100.436806 93.0 190.0
108.39682 168.0 152.0
106.456985 89.0 131.0
149.54294 167.0 131.0
134.99844 172.0 121.0
134.96547 172.0 122.0
134.93248 172.0 123.0
152.80711 165.0 172.0
152.81023 165.0 173.0
134.94453 172.0 124.0
134.97923 172.0 125.0
139.66034 171.0 172.0
139.63977 171.0 173.0
152.80774 165.0 174.0
103.19287 91.0 172.0
103.18976 91.0 173.0
116.37274 171.0 129.0
116.35823 171.0 130.0
103.192245 91.0 174.0
103.19686 91.0 109.0
152.80289 165.0 109.0
116.33975 85.0 172.0
116.360306 85.0 173.0
108.382256 88.0 59.0
147.61774 168.0 59.0
139.62411 85.0 129.0
139.6414 85.0 130.0
121.03078 84.0 122.0
121.06405 84.0 123.0
147.6138 88.0 100.0
147.60231 88.0 101.0
110.5662 87.0 127.0
110.56778 87.0 125.0
110.57188 87.0 126.0
145.43102 169.0 127.0
145.4288 169.0 125.0
145.42479 169.0 126.0
108.385895 168.0 100.0
108.39736 168.0 101.0
121.035645 84.0 124.0
155.54797 93.0 197.0
155.55618 93.0 198.0
116.35727 171.0 110.0
149.53783 89.0 68.0
151.25397 90.0 68.0
139.63408 171.0 142.0
116.3677 171.0 109.0
139.64304 85.0 110.0
139.65883 85.0 111.0
104.746086 166.0 68.0
106.462166 167.0 68.0
159.99007 97.0 74.0
139.62758 171.0 143.0
139.631 85.0 109.0
96.01005 159.0 74.0
96.01005 97.0 74.0
159.99004 159.0 74.0
151.25612 90.0 61.0
151.25046 90.0 62.0
113.14235 86.0 130.0
113.162445 86.0 131.0
104.74388 166.0 61.0
104.74955 166.0 62.0
113.156364 170.0 123.0
95.06363 98.0 82.0
95.06178 98.0 83.0
94.182625 99.0 83.0
95.06006 98.0 84.0
94.18437 99.0 84.0
94.18612 99.0 85.0
160.93617 158.0 82.0
160.93803 158.0 83.0
161.81754 157.0 83.0
161.81578 157.0 84.0
160.93974 158.0 84.0
161.81401 157.0 85.0
160.93655 98.0 82.0
160.93866 98.0 83.0
160.94077 98.0 84.0
161.81747 99.0 83.0
161.8156 99.0 84.0
161.81372 99.0 85.0
95.063225 158.0 82.0
95.061134 158.0 83.0
94.18272 157.0 83.0
94.18457 157.0 84.0
94.186424 157.0 85.0
113.15494 170.0 122.0
142.83946 86.0 123.0
142.86353 86.0 124.0
139.62787 85.0 79.0
139.64577 85.0 80.0
139.66367 85.0 81.0
104.74161 90.0 113.0
104.743515 90.0 114.0
151.25816 166.0 113.0
151.25624 166.0 114.0
142.84782 86.0 122.0
142.84363 170.0 131.0
142.85136 86.0 121.0
113.14764 170.0 120.0
113.14878 170.0 121.0
98.07521 95.0 56.0
98.07971 95.0 57.0
97.00011 96.0 53.0
96.99907 96.0 54.0
98.070854 95.0 55.0
98.088104 95.0 53.0
98.077415 95.0 54.0
157.92477 161.0 56.0
157.92026 161.0 57.0
158.9999 160.0 53.0
159.00093 160.0 54.0
157.92912 161.0 55.0
157.9119 161.0 53.0
157.92256 161.0 54.0
157.92523 161.0 165.0
134.95836 84.0 126.0
98.07479 95.0 165.0
147.58025 168.0 190.0
147.58574 168.0 191.0
98.074875 161.0 165.0
147.59367 168.0 192.0
147.60558 168.0 193.0
157.92516 95.0 165.0
159.9929 97.0 90.0
159.00017 96.0 88.0
158.99794 96.0 89.0
96.00718 159.0 90.0
96.999794 160.0 88.0
97.00202 160.0 89.0
96.99926 96.0 87.0
97.001564 96.0 88.0
97.00387 96.0 89.0
159.0007 160.0 87.0
158.9984 160.0 88.0
158.99611 160.0 89.0
108.41975 88.0 190.0
108.41425 88.0 191.0
108.40631 88.0 192.0
108.39441 88.0 193.0
108.38991 88.0 103.0
108.39066 88.0 104.0
108.38942 88.0 105.0
108.387955 88.0 101.0
108.38787 88.0 102.0
147.61017 168.0 103.0
147.60918 168.0 104.0
147.61037 168.0 105.0
147.61201 168.0 101.0
147.61206 168.0 102.0
113.166824 170.0 181.0
113.15399 170.0 182.0
113.14117 170.0 183.0
142.83318 86.0 181.0
142.84601 86.0 182.0
142.85884 86.0 183.0
169.17441 111.0 67.0
169.17186 111.0 68.0
113.13757 86.0 69.0
113.151695 86.0 70.0
110.57072 169.0 173.0
142.86241 170.0 69.0
142.84828 170.0 70.0
165.52913 152.0 187.0
165.52693 152.0 188.0
145.42938 87.0 173.0
90.47069 104.0 187.0
90.47295 104.0 188.0
90.46993 152.0 187.0
90.4723 152.0 188.0
165.52986 104.0 187.0
165.52757 104.0 188.0
106.48475 167.0 183.0
106.48139 167.0 184.0
106.48241 167.0 185.0
106.46151 167.0 181.0
106.474266 167.0 182.0
106.48207 89.0 119.0
106.481926 89.0 120.0
149.51526 89.0 183.0
149.51863 89.0 184.0
106.47711 89.0 118.0
149.51761 89.0 185.0
149.51833 167.0 119.0
149.51855 167.0 120.0
149.5385 89.0 181.0
149.52574 89.0 182.0
149.52321 167.0 118.0
151.2424 90.0 78.0
151.25229 90.0 76.0
151.24341 90.0 77.0
152.80917 91.0 80.0
151.24887 90.0 79.0
151.2558 90.0 80.0
172.27193 133.0 171.0
172.13338 134.0 171.0
171.99483 135.0 171.0
172.13866 134.0 172.0
169.17442 145.0 67.0
169.17186 145.0 68.0
84.00135 121.0 175.0
84.00498 121.0 171.0
83.86651 122.0 171.0
83.72803 123.0 171.0
83.8608 122.0 172.0
83.855095 122.0 173.0
104.75763 166.0 78.0
84.00135 135.0 175.0
83.72803 133.0 171.0
83.86651 134.0 171.0
84.00498 135.0 171.0
83.8608 134.0 172.0
83.855095 134.0 173.0
104.74775 166.0 76.0
104.75663 166.0 77.0
103.19087 165.0 80.0
171.99483 121.0 171.0
172.13338 122.0 171.0
172.27193 123.0 171.0
172.13866 122.0 172.0
83.46239 127.0 173.0
83.44549 128.0 172.0
83.44549 128.0 173.0
83.46238 129.0 173.0
104.75116 166.0 79.0
104.74423 166.0 80.0
106.461586 89.0 76.0
106.464 89.0 77.0
106.466415 89.0 78.0
149.53842 167.0 76.0
149.53601 167.0 77.0
149.5336 167.0 78.0
157.93144 95.0 55.0
157.92728 95.0 56.0
159.00002 96.0 53.0
159.00073 96.0 54.0
159.00143 96.0 55.0
157.91241 95.0 53.0
157.9252 95.0 54.0
145.41718 87.0 127.0
103.19736 165.0 137.0
103.18779 165.0 138.0
110.581535 169.0 127.0
110.578514 87.0 78.0
101.75373 164.0 138.0
101.76223 164.0 139.0
98.06854 161.0 55.0
98.07271 161.0 56.0
145.4215 169.0 78.0
97.0 160.0 53.0
96.9993 160.0 54.0
96.998604 160.0 55.0
91.81889 102.0 83.0
91.820435 102.0 84.0
92.567696 101.0 82.0
92.565704 101.0 83.0
92.56811 101.0 81.0
164.17995 154.0 84.0
163.4322 155.0 82.0
163.43422 155.0 83.0
163.4318 155.0 81.0
91.81921 154.0 83.0
91.82078 154.0 84.0
93.34646 156.0 79.0
93.34961 156.0 80.0
92.5676 155.0 82.0
92.56553 155.0 83.0
92.56795 155.0 81.0
162.65369 100.0 79.0
162.65053 100.0 80.0
164.18127 102.0 83.0
164.17966 102.0 84.0
93.34658 100.0 79.0
93.34968 100.0 80.0
163.43228 101.0 82.0
163.43437 101.0 83.0
162.65353 156.0 79.0
162.65044 156.0 80.0
163.43198 101.0 81.0
152.8027 91.0 137.0
152.81223 91.0 138.0
154.24628 92.0 138.0
154.23778 92.0 139.0
98.087585 161.0 53.0
98.0748 161.0 54.0
139.65143 85.0 141.0
139.65411 85.0 142.0
139.65678 85.0 143.0
110.57296 87.0 98.0
110.57445 87.0 99.0
145.42667 169.0 98.0
145.42578 169.0 99.0
139.64172 85.0 144.0
139.6089 85.0 145.0
104.7536 90.0 67.0
104.7513 90.0 68.0
110.57904 169.0 180.0
110.58487 169.0 181.0
110.57118 169.0 182.0
145.42099 87.0 180.0
145.41513 87.0 181.0
145.42882 87.0 182.0
147.612 168.0 154.0
147.61273 168.0 155.0
108.38718 88.0 155.0
108.38783 88.0 154.0
166.14793 105.0 64.0
166.15474 105.0 65.0
166.15067 105.0 62.0
165.53543 104.0 63.0
166.1424 105.0 63.0
89.85221 151.0 64.0
89.841385 151.0 61.0
89.84978 151.0 62.0
89.85817 151.0 63.0
90.46374 152.0 63.0
89.85254 105.0 64.0
89.84568 105.0 65.0
89.8494 105.0 62.0
89.8578 105.0 63.0
166.14769 151.0 64.0
166.15453 151.0 65.0
166.15094 151.0 62.0
166.14265 151.0 63.0
165.53555 152.0 63.0
151.2464 166.0 67.0
151.24603 90.0 64.0
151.23505 90.0 65.0
113.137924 170.0 176.0
113.140205 170.0 177.0
151.23717 90.0 66.0
151.24844 90.0 67.0
104.75399 166.0 64.0
104.76497 166.0 65.0
104.76285 166.0 66.0
104.75157 166.0 67.0
151.2487 166.0 68.0
96.998604 96.0 55.0
92.563835 101.0 56.0
92.56034 101.0 57.0
93.34789 100.0 54.0
93.346436 100.0 55.0
92.566444 101.0 55.0
93.34497 100.0 56.0
93.34983 100.0 53.0
92.57872 101.0 53.0
92.57187 101.0 54.0
163.43625 155.0 56.0
163.43977 155.0 57.0
162.65207 156.0 54.0
163.43364 155.0 55.0
162.65349 156.0 55.0
162.6549 156.0 56.0
163.42128 155.0 53.0
162.65018 156.0 53.0
163.42816 155.0 54.0
163.43617 101.0 56.0
163.43945 101.0 57.0
162.65268 100.0 54.0
162.65485 100.0 55.0
163.43335 101.0 55.0
162.65015 100.0 53.0
163.42126 101.0 53.0
163.42804 101.0 54.0
92.5639 155.0 56.0
92.560646 155.0 57.0
93.3473 156.0 54.0
92.566734 155.0 55.0
93.34508 156.0 55.0
101.75843 92.0 112.0
101.755394 92.0 113.0
92.57875 155.0 53.0
93.34986 156.0 53.0
92.572 155.0 54.0
149.52856 167.0 147.0
149.53445 167.0 148.0
154.2416 164.0 112.0
154.24461 164.0 113.0
151.24797 166.0 148.0
151.24391 166.0 149.0
151.24786 166.0 150.0
151.25182 166.0 151.0
106.4709 89.0 147.0
106.46502 89.0 148.0
104.75254 90.0 148.0
104.74837 90.0 151.0
104.756355 90.0 149.0
104.75236 90.0 150.0
142.86209 86.0 176.0
142.85982 86.0 177.0
121.032005 172.0 125.0
149.50697 89.0 134.0
149.51694 89.0 135.0
106.49327 167.0 134.0
106.48325 167.0 135.0
116.372116 171.0 79.0
116.354195 171.0 80.0
116.33627 171.0 81.0
108.39521 88.0 66.0
108.41041 88.0 67.0
96.0009 97.0 55.0
96.007866 97.0 56.0
113.13596 86.0 74.0
113.13552 86.0 75.0
113.13507 86.0 76.0
96.020256 97.0 53.0
96.00666 97.0 54.0
159.00136 160.0 55.0
142.86403 170.0 74.0
142.86447 170.0 75.0
142.86491 170.0 76.0
108.40851 88.0 68.0
108.38675 88.0 69.0
147.60478 168.0 66.0
147.58958 168.0 67.0
149.5243 89.0 151.0
149.52524 89.0 152.0
149.52617 89.0 153.0
147.59148 168.0 68.0
147.61324 168.0 69.0
95.0664 98.0 70.0
160.93375 158.0 70.0
160.9341 98.0 70.0
95.06606 158.0 70.0
95.06617 98.0 66.0
95.073524 98.0 67.0
160.93387 158.0 66.0
160.92654 158.0 67.0
160.93268 98.0 66.0
160.92528 98.0 67.0
172.50423 126.0 68.0
172.50436 126.0 69.0
172.50502 126.0 70.0
172.50423 130.0 68.0
172.50436 130.0 69.0
172.50502 130.0 70.0
95.06742 158.0 66.0
95.07484 158.0 67.0
106.46532 89.0 111.0
149.53482 167.0 111.0
106.47579 167.0 151.0
106.47482 167.0 152.0
106.473854 167.0 153.0
110.57812 87.0 100.0
110.57182 87.0 101.0
145.42162 169.0 100.0
145.42792 169.0 101.0
108.38433 168.0 97.0
108.39159 168.0 98.0
108.378555 168.0 95.0
110.577705 169.0 158.0
110.58319 169.0 159.0
110.58319 169.0 160.0
145.42265 87.0 158.0
145.41711 87.0 159.0
145.41678 87.0 160.0
145.42723 87.0 119.0
145.42506 87.0 118.0
145.43004 87.0 120.0
110.5723 169.0 119.0
110.57476 169.0 118.0
103.1902 165.0 144.0
103.19279 165.0 145.0
103.18932 165.0 146.0
152.80974 91.0 144.0
152.80713 91.0 145.0
152.81055 91.0 146.0
85.718475 114.0 53.0
85.393555 115.0 53.0
85.70992 114.0 54.0
170.60641 141.0 53.0
170.2815 142.0 53.0
170.28993 142.0 54.0
170.2815 114.0 53.0
170.60641 115.0 53.0
170.28993 114.0 54.0
85.39355 141.0 53.0
85.71847 142.0 53.0
85.70987 142.0 54.0
110.572685 87.0 79.0
110.56551 87.0 80.0
149.53636 89.0 112.0
147.62065 88.0 110.0
147.62282 88.0 111.0
106.4646 167.0 112.0
108.378716 168.0 110.0
108.37655 168.0 111.0
110.57355 169.0 174.0
110.57582 169.0 175.0
110.578094 169.0 176.0
145.42651 87.0 174.0
145.42422 87.0 175.0
145.42195 87.0 176.0
103.19163 165.0 152.0
103.18927 165.0 153.0
152.80838 91.0 152.0
152.81073 91.0 153.0
145.42728 169.0 79.0
145.43445 169.0 80.0
113.150505 170.0 105.0
103.1821 91.0 116.0
113.15032 170.0 103.0
113.15112 170.0 104.0
110.57407 169.0 153.0
110.57536 169.0 154.0
172.1411 122.0 198.0
171.98997 121.0 199.0
172.13376 122.0 199.0
145.42639 87.0 153.0
145.42511 87.0 154.0
172.1411 134.0 198.0
172.13376 134.0 199.0
171.98997 135.0 199.0
145.4262 87.0 155.0
116.35041 85.0 78.0
116.342064 85.0 79.0
139.6495 171.0 78.0
139.65784 171.0 79.0
152.81772 165.0 116.0
113.14791 170.0 106.0
142.84938 86.0 105.0
142.84955 86.0 103.0
142.84865 86.0 104.0
116.36904 85.0 120.0
116.39441 85.0 118.0
116.37897 85.0 119.0
139.62947 171.0 120.0
139.60571 171.0 118.0
139.61864 171.0 119.0
139.64757 85.0 132.0
139.6327 85.0 133.0
139.64008 85.0 134.0
116.35945 171.0 132.0
116.36962 171.0 133.0
116.35585 171.0 134.0
116.34207 171.0 135.0
155.56044 93.0 59.0
155.56557 93.0 60.0
100.43961 163.0 59.0
100.43449 163.0 60.0
142.85191 86.0 106.0
160.93565 158.0 195.0
160.92912 158.0 196.0
160.92493 158.0 197.0
159.99786 159.0 197.0
160.93263 158.0 198.0
95.06433 98.0 195.0
95.070854 98.0 196.0
96.00212 97.0 197.0
95.075096 98.0 197.0
95.06738 98.0 198.0
163.43567 101.0 71.0
163.43239 101.0 72.0
92.56447 155.0 71.0
92.56427 101.0 71.0
92.56759 101.0 72.0
163.43582 155.0 71.0
163.43254 155.0 72.0
95.06502 158.0 195.0
95.07135 158.0 196.0
95.07485 158.0 197.0
96.00094 159.0 197.0
95.0673 158.0 198.0
160.93497 98.0 195.0
160.92865 98.0 196.0
159.99905 97.0 197.0
160.92517 98.0 197.0
160.93272 98.0 198.0
100.436646 93.0 59.0
101.758064 92.0 60.0
100.43358 93.0 60.0
100.43051 93.0 61.0
155.56339 163.0 59.0
155.56645 163.0 60.0
154.2419 164.0 60.0
155.56952 163.0 61.0
106.47297 167.0 163.0
106.465034 167.0 164.0
149.52695 89.0 163.0
149.53488 89.0 164.0
93.35644 156.0 164.0
93.35399 156.0 165.0
134.97488 84.0 127.0
93.35385 156.0 166.0
94.17665 157.0 166.0
94.17942 157.0 167.0
121.04638 172.0 126.0
162.64359 100.0 164.0
162.64606 100.0 165.0
161.82323 99.0 166.0
162.64622 100.0 166.0
161.82045 99.0 167.0
93.35637 100.0 164.0
93.353874 100.0 165.0
139.66472 171.0 149.0
110.56927 87.0 56.0
94.17723 99.0 166.0
93.353806 100.0 166.0
94.18004 99.0 167.0
162.64365 156.0 164.0
162.64616 156.0 165.0
162.64627 156.0 166.0
161.82265 157.0 166.0
161.81982 157.0 167.0
86.82228 145.0 66.0
86.424225 144.0 67.0
86.82464 145.0 67.0
86.82699 145.0 68.0
121.018196 172.0 148.0
121.01687 172.0 149.0
86.82454 111.0 67.0
86.8269 111.0 68.0
151.24992 166.0 170.0
116.3339 85.0 149.0
145.43073 169.0 56.0
151.2499 166.0 171.0
151.25052 166.0 172.0
104.75006 90.0 170.0
104.750084 90.0 171.0
104.74947 90.0 172.0
134.98325 84.0 148.0
134.98404 84.0 149.0
134.94058 84.0 129.0
134.97243 84.0 130.0
104.73984 90.0 126.0
134.9619 84.0 128.0
157.92342 95.0 91.0
157.93082 95.0 92.0
98.07659 161.0 91.0
98.06919 161.0 92.0
98.08255 95.0 90.0
98.07496 95.0 91.0
98.067375 95.0 92.0
157.91747 161.0 90.0
157.92505 161.0 91.0
157.93263 161.0 92.0
121.01155 84.0 103.0
121.01438 84.0 104.0
161.8108 99.0 173.0
162.64812 100.0 173.0
162.65004 100.0 174.0
163.43816 101.0 175.0
162.64786 100.0 175.0
162.65105 100.0 176.0
93.35221 156.0 173.0
94.18913 157.0 173.0
106.47344 167.0 154.0
106.4726 167.0 155.0
106.47177 167.0 156.0
93.34982 156.0 174.0
92.562225 155.0 175.0
93.35203 156.0 175.0
93.348816 156.0 176.0
134.98715 172.0 103.0
134.98416 172.0 104.0
162.64938 156.0 173.0
161.81114 157.0 173.0
162.64935 156.0 174.0
163.43881 155.0 175.0
116.339424 171.0 148.0
116.33737 171.0 149.0
142.84901 86.0 102.0
162.64763 156.0 175.0
162.65074 156.0 176.0
94.18879 99.0 173.0
93.35094 100.0 173.0
113.15077 170.0 102.0
93.35052 100.0 174.0
92.56157 101.0 175.0
93.352264 100.0 175.0
93.34913 100.0 176.0
172.5039 126.0 84.0
172.5315 127.0 84.0
149.52661 89.0 154.0
149.52744 89.0 155.0
149.52824 89.0 156.0
113.14737 170.0 149.0
113.14882 170.0 148.0
172.53372 127.0 82.0
142.85252 86.0 150.0
142.85237 86.0 148.0
142.8538 86.0 149.0
172.53543 127.0 83.0
172.5545 128.0 83.0
172.53543 129.0 83.0
172.5545 128.0 84.0
172.53372 129.0 82.0
172.5315 129.0 84.0
172.50389 130.0 84.0
108.38263 168.0 166.0
147.61743 88.0 166.0
159.99913 159.0 55.0
159.99219 159.0 56.0
142.85075 170.0 119.0
113.14433 86.0 118.0
113.150314 86.0 119.0
94.19072 99.0 176.0
94.18515 99.0 174.0
94.187126 99.0 175.0
106.473816 89.0 124.0
106.46884 89.0 125.0
106.47669 89.0 123.0
149.52626 167.0 124.0
149.53119 167.0 125.0
149.52576 167.0 122.0
149.52347 167.0 123.0
89.8604 105.0 53.0
89.85281 105.0 54.0
89.84522 105.0 55.0
166.13959 151.0 53.0
166.14717 151.0 54.0
166.15474 151.0 55.0
166.1396 105.0 53.0
166.14722 105.0 54.0
166.15483 105.0 55.0
89.86039 151.0 53.0
89.85276 151.0 54.0
89.84512 151.0 55.0
161.80933 157.0 176.0
161.8149 157.0 174.0
161.81293 157.0 175.0
145.4225 87.0 121.0
145.43097 87.0 122.0
94.19052 157.0 176.0
103.19275 165.0 135.0
103.202126 165.0 136.0
94.185104 157.0 174.0
94.18705 157.0 175.0
152.80733 91.0 135.0
152.79796 91.0 136.0
161.80952 99.0 176.0
104.756096 166.0 134.0
161.81494 99.0 174.0
161.813 99.0 175.0
151.24405 90.0 134.0
159.97974 159.0 53.0
159.99333 159.0 54.0
91.82899 154.0 179.0
92.566154 155.0 181.0
92.561 155.0 182.0
167.2918 107.0 89.0
166.73811 106.0 90.0
92.56843 155.0 179.0
92.5706 155.0 180.0
110.57297 169.0 149.0
110.57561 169.0 148.0
145.4242 87.0 148.0
145.42708 87.0 149.0
96.00217 159.0 55.0
96.012184 159.0 56.0
96.01979 159.0 53.0
96.004295 159.0 54.0
171.82564 136.0 174.0
171.6334 137.0 175.0
159.9979 97.0 55.0
159.98788 97.0 56.0
159.98021 97.0 53.0
159.9957 97.0 54.0
84.36771 137.0 174.0
104.743355 166.0 163.0
104.742424 166.0 164.0
84.36772 119.0 174.0
121.018684 172.0 159.0
171.82562 120.0 174.0
171.63342 119.0 175.0
121.017365 172.0 160.0
164.17093 102.0 179.0
104.74144 166.0 161.0
104.74305 166.0 162.0
104.756584 90.0 143.0
103.17943 91.0 143.0
99.2144 94.0 90.0
151.25153 166.0 142.0
151.24248 166.0 143.0
156.78561 162.0 90.0
156.78625 94.0 90.0
156.78647 94.0 91.0
99.21377 162.0 90.0
